ply
format ascii 1.0
comment VTK generated PLY File
obj_info vtkPolyData points and polygons: vtk4.0
element vertex 839
property float x
property float y
property float z
element face 0
property list uchar int vertex_indices
end_header
710.7774658203125 897.89581298828125 0.53165453672409058 
710.7828369140625 897.8984375 0.53165191411972046 
710.7835693359375 897.897705078125 0.53165256977081299 
710.78411865234375 897.89691162109375 0.53165334463119507 
710.78509521484375 897.89642333984375 0.5316537618637085 
710.78546142578125 897.89544677734375 0.53165465593338013 
710.7860107421875 897.89459228515625 0.53165543079376221 
710.78643798828125 897.89373779296875 0.53165620565414429 
710.787109375 897.89300537109375 0.53165692090988159 
710.787841796875 897.89227294921875 0.53165757656097412 
710.7884521484375 897.89154052734375 0.53165829181671143 
710.7891845703125 897.89093017578125 0.53165888786315918 
710.789794921875 897.89013671875 0.53165960311889648 
710.79052734375 897.88946533203125 0.53166025876998901 
710.79107666015625 897.88873291015625 0.53166103363037109 
710.791748046875 897.88800048828125 0.53166168928146362 
710.79620361328125 897.8900146484375 0.53165972232818604 
710.796630859375 897.88909912109375 0.53166055679321289 
710.79705810546875 897.8883056640625 0.53166139125823975 
710.797607421875 897.88751220703125 0.53166216611862183 
710.79498291015625 897.884521484375 0.5316651463508606 
710.798828125 897.885986328125 0.53166365623474121 
710.79925537109375 897.88519287109375 0.53166455030441284 
710.7998046875 897.8843994140625 0.53166526556015015 
710.80035400390625 897.8836669921875 0.531666100025177 
710.80096435546875 897.883056640625 0.53166681528091431 
710.80169677734375 897.88238525390625 0.53166747093200684 
710.8016357421875 897.88128662109375 0.53166866302490234 
710.80218505859375 897.88055419921875 0.5316694974899292 
710.80291748046875 897.87994384765625 0.53167015314102173 
710.80328369140625 897.87908935546875 0.53167110681533813 
710.80389404296875 897.8785400390625 0.53167182207107544 
710.8050537109375 897.87823486328125 0.53167217969894409 
710.80633544921875 897.87811279296875 0.53167241811752319 
710.80706787109375 897.87750244140625 0.53167319297790527 
710.8077392578125 897.87689208984375 0.53167396783828735 
710.80889892578125 897.876708984375 0.53167426586151123 
710.83831787109375 897.8948974609375 0.53165435791015625 
710.83892822265625 897.894287109375 0.53165513277053833 
710.83538818359375 897.89093017578125 0.5316588282585144 
710.8115234375 897.8746337890625 0.53167724609375 
710.8125 897.87432861328125 0.53167778253555298 
710.83648681640625 897.8885498046875 0.5316617488861084 
710.83734130859375 897.8880615234375 0.53166234493255615 
710.8380126953125 897.8875732421875 0.53166300058364868 
710.8392333984375 897.8873291015625 0.53166335821151733 
710.84002685546875 897.88690185546875 0.53166401386260986 
710.8409423828125 897.88665771484375 0.53166455030441284 
710.849365234375 897.8907470703125 0.53165960311889648 
710.85028076171875 897.89031982421875 0.53166025876998901 
710.8505859375 897.8896484375 0.5316612720489502 
710.851318359375 897.88922119140625 0.5316619873046875 
710.84832763671875 897.88677978515625 0.53166550397872925 
710.84918212890625 897.886474609375 0.53166615962982178 
710.82806396484375 897.8743896484375 0.53168350458145142 
710.82684326171875 897.87347412109375 0.53168582916259766 
710.827392578125 897.87353515625 0.53168684244155884 
710.83270263671875 897.8759765625 0.5316842794418335 
710.82525634765625 897.87225341796875 0.53169161081314087 
710.91015625 897.9075927734375 0.53162997961044312 
710.90216064453125 897.9033203125 0.53163760900497437 
710.90277099609375 897.9024658203125 0.53163820505142212 
710.90460205078125 897.90185546875 0.53163790702819824 
710.90179443359375 897.90008544921875 0.53164142370223999 
710.90234375 897.8992919921875 0.53164219856262207 
710.90081787109375 897.89825439453125 0.53164482116699219 
710.90142822265625 897.89764404296875 0.53164559602737427 
710.90093994140625 897.89715576171875 0.5316474437713623 
710.9033203125 897.8966064453125 0.5316464900970459 
710.9034423828125 897.896484375 0.53164798021316528 
710.90533447265625 897.895751953125 0.53164750337600708 
710.906494140625 897.8948974609375 0.53164756298065186 
710.9075927734375 897.89422607421875 0.53164792060852051 
710.90875244140625 897.89324951171875 0.53164803981781006 
710.90960693359375 897.892333984375 0.53164845705032349 
710.9105224609375 897.89166259765625 0.53164899349212646 
710.912109375 897.89404296875 0.53164982795715332 
710.9132080078125 897.8934326171875 0.53165006637573242 
710.91265869140625 897.88897705078125 0.53165054321289062 
710.91632080078125 897.8939208984375 0.53165048360824585 
710.91448974609375 897.8878173828125 0.53165161609649658 
710.9171142578125 897.89013671875 0.53165149688720703 
710.918701171875 897.8905029296875 0.53165173530578613 
710.91748046875 897.88653564453125 0.53165298700332642 
710.917236328125 897.8841552734375 0.5316540002822876 
710.91729736328125 897.882568359375 0.53165489435195923 
710.9249267578125 897.89105224609375 0.53165221214294434 
710.92279052734375 897.88616943359375 0.53165411949157715 
710.927001953125 897.8897705078125 0.53165292739868164 
710.92803955078125 897.8890380859375 0.53165328502655029 
710.92864990234375 897.88800048828125 0.53165388107299805 
710.92938232421875 897.886962890625 0.5316544771194458 
710.9300537109375 897.88604736328125 0.53165501356124878 
710.9310302734375 897.88543701171875 0.53165543079376221 
710.9312744140625 897.884033203125 0.53165626525878906 
710.9317626953125 897.88275146484375 0.53165698051452637 
710.93182373046875 897.88134765625 0.531657874584198 
710.94189453125 897.89056396484375 0.53165316581726074 
710.94281005859375 897.88983154296875 0.53165358304977417 
710.9359130859375 897.88067626953125 0.53165853023529053 
710.9359130859375 897.87921142578125 0.53165948390960693 
710.9371337890625 897.87884521484375 0.53165978193283081 
710.94598388671875 897.8863525390625 0.53165560960769653 
710.9468994140625 897.88568115234375 0.53165608644485474 
710.94207763671875 897.87921142578125 0.53165990114212036 
710.94561767578125 897.88116455078125 0.53165876865386963 
710.94610595703125 897.88006591796875 0.53165948390960693 
710.94720458984375 897.87945556640625 0.53165990114212036 
710.947998046875 897.87872314453125 0.53166037797927856 
710.950439453125 897.879638671875 0.53165990114212036 
710.9537353515625 897.8812255859375 0.53165900707244873 
710.954345703125 897.88031005859375 0.53165966272354126 
710.95391845703125 897.8782958984375 0.53166091442108154 
710.956787109375 897.87957763671875 0.53166013956069946 
710.95745849609375 897.878662109375 0.53166079521179199 
710.9583740234375 897.87799072265625 0.5316612720489502 
710.95855712890625 897.8765869140625 0.53166216611862183 
710.7757568359375 897.89898681640625 0.53165256977081299 
710.7764892578125 897.89825439453125 0.53165322542190552 
710.777099609375 897.89752197265625 0.53165394067764282 
710.777587890625 897.89666748046875 0.5316547155380249 
710.77813720703125 897.8958740234375 0.53165543079376221 
710.7835693359375 897.89849853515625 0.53165286779403687 
710.7841796875 897.89776611328125 0.53165352344512939 
710.784912109375 897.89703369140625 0.53165417909622192 
710.7852783203125 897.89617919921875 0.53165507316589355 
710.7860107421875 897.89544677734375 0.53165572881698608 
710.78680419921875 897.894775390625 0.53165626525878906 
710.787353515625 897.89404296875 0.53165698051452637 
710.78790283203125 897.893310546875 0.53165769577026367 
710.78863525390625 897.892578125 0.53165841102600098 
710.78948974609375 897.89190673828125 0.53165906667709351 
710.78997802734375 897.89111328125 0.53165978193283081 
710.79052734375 897.89031982421875 0.53166049718856812 
710.791259765625 897.8896484375 0.53166115283966064 
710.79180908203125 897.888916015625 0.53166192770004272 
710.7960205078125 897.89068603515625 0.53166019916534424 
710.79644775390625 897.889892578125 0.53166097402572632 
710.79388427734375 897.886962890625 0.53166389465332031 
710.79754638671875 897.88824462890625 0.53166252374649048 
710.79815673828125 897.8875732421875 0.53166323900222778 
710.79864501953125 897.88677978515625 0.53166407346725464 
710.79925537109375 897.885986328125 0.53166484832763672 
710.7998046875 897.88525390625 0.53166556358337402 
710.800537109375 897.88470458984375 0.53166627883911133 
710.80078125 897.8837890625 0.53166723251342773 
710.80096435546875 897.88275146484375 0.53166830539703369 
710.801513671875 897.882080078125 0.531669020652771 
710.80206298828125 897.88134765625 0.53166985511779785 
710.802734375 897.88067626953125 0.53167057037353516 
710.80328369140625 897.88006591796875 0.53167134523391724 
710.80438232421875 897.8797607421875 0.53167176246643066 
710.8050537109375 897.879150390625 0.53167247772216797 
710.80682373046875 897.87921142578125 0.53167247772216797 
710.80743408203125 897.878662109375 0.53167319297790527 
710.80810546875 897.87811279296875 0.53167390823364258 
710.833984375 897.89398193359375 0.53165662288665771 
710.8348388671875 897.89349365234375 0.53165715932846069 
710.83905029296875 897.8951416015625 0.53165531158447266 
710.8355712890625 897.89190673828125 0.53165900707244873 
710.8116455078125 897.87554931640625 0.53167754411697388 
710.8126220703125 897.8753662109375 0.53167802095413208 
710.83660888671875 897.88946533203125 0.53166192770004272 
710.8375244140625 897.88897705078125 0.53166252374649048 
710.83837890625 897.888671875 0.53166300058364868 
710.8392333984375 897.88824462890625 0.53166365623474121 
710.84039306640625 897.88800048828125 0.53166407346725464 
710.8480224609375 897.89166259765625 0.53165966272354126 
710.8494873046875 897.8916015625 0.53165984153747559 
710.8502197265625 897.89111328125 0.53166049718856812 
710.8502197265625 897.8902587890625 0.53166180849075317 
710.82513427734375 897.875244140625 0.53168183565139771 
710.84796142578125 897.887451171875 0.53166598081588745 
710.848876953125 897.88714599609375 0.53166663646697998 
710.827880859375 897.87530517578125 0.53168386220932007 
710.826416015625 897.87420654296875 0.53168642520904541 
710.83074951171875 897.87615966796875 0.53168457746505737 
710.8323974609375 897.87677001953125 0.53168487548828125 
710.91802978515625 897.91290283203125 0.53162270784378052 
710.90997314453125 897.90814208984375 0.53163021802902222 
710.90203857421875 897.9039306640625 0.53163790702819824 
710.9027099609375 897.90301513671875 0.531638503074646 
710.9005126953125 897.90130615234375 0.53164148330688477 
710.8988037109375 897.89996337890625 0.53164422512054443 
710.9022216796875 897.89984130859375 0.53164249658584595 
710.90081787109375 897.8988037109375 0.53164505958557129 
710.90130615234375 897.89825439453125 0.53164589405059814 
710.90240478515625 897.8975830078125 0.5316462516784668 
710.90179443359375 897.89739990234375 0.53164833784103394 
710.9041748046875 897.8966064453125 0.53164732456207275 
710.905029296875 897.896240234375 0.53164792060852051 
710.9072265625 897.8944091796875 0.53164678812026978 
710.90753173828125 897.894775390625 0.53164821863174438 
710.90960693359375 897.8892822265625 0.53164577484130859 
710.90948486328125 897.89300537109375 0.53164881467819214 
710.91070556640625 897.89581298828125 0.53165030479431152 
710.91107177734375 897.89141845703125 0.53164982795715332 
710.9119873046875 897.8907470703125 0.53165030479431152 
710.91265869140625 897.8897705078125 0.53165090084075928 
710.9163818359375 897.89532470703125 0.53165090084075928 
710.9176025390625 897.89459228515625 0.5316510796546936 
710.91522216796875 897.887939453125 0.53165245056152344 
710.916015625 897.88726806640625 0.53165298700332642 
710.917236328125 897.88702392578125 0.53165340423583984 
710.91650390625 897.88409423828125 0.53165459632873535 
710.91778564453125 897.88409423828125 0.531654953956604 
710.9254150390625 897.8924560546875 0.53165233135223389 
710.9222412109375 897.8863525390625 0.5316547155380249 
710.92681884765625 897.890380859375 0.53165328502655029 
710.927734375 897.88970947265625 0.5316537618637085 
710.92828369140625 897.888427734375 0.53165435791015625 
710.92913818359375 897.88751220703125 0.53165483474731445 
710.9296875 897.88653564453125 0.53165549039840698 
710.93072509765625 897.88592529296875 0.53165584802627563 
710.93145751953125 897.885009765625 0.53165644407272339 
710.93255615234375 897.88458251953125 0.53165674209594727 
710.94171142578125 897.89300537109375 0.53165262937545776 
710.932373046875 897.8809814453125 0.5316588282585144 
710.932861328125 897.8798828125 0.53165960311889648 
710.935302734375 897.880859375 0.53165912628173828 
710.9359130859375 897.87994384765625 0.53165978193283081 
710.9490966796875 897.89208984375 0.53165316581726074 
710.94573974609375 897.886962890625 0.53165608644485474 
710.94647216796875 897.88604736328125 0.53165662288665771 
710.94512939453125 897.883056640625 0.5316583514213562 
710.945556640625 897.88189697265625 0.53165912628173828 
710.9462890625 897.881103515625 0.53165966272354126 
710.9453125 897.87841796875 0.5316612720489502 
710.94775390625 897.8792724609375 0.53166085481643677 
710.95098876953125 897.8809814453125 0.53165990114212036 
710.95355224609375 897.88189697265625 0.53165936470031738 
710.9541015625 897.88079833984375 0.53166007995605469 
710.953369140625 897.87860107421875 0.5316615104675293 
710.95672607421875 897.88031005859375 0.53166049718856812 
710.95709228515625 897.87908935546875 0.53166133165359497 
710.95819091796875 897.878662109375 0.53166157007217407 
710.95843505859375 897.8773193359375 0.53166252374649048 
710.7764892578125 897.89910888671875 0.53165346384048462 
710.77703857421875 897.89825439453125 0.5316542387008667 
710.77777099609375 897.8975830078125 0.53165489435195923 
710.7783203125 897.89678955078125 0.53165560960769653 
710.7789306640625 897.89599609375 0.53165632486343384 
710.7845458984375 897.8988037109375 0.53165358304977417 
710.7850341796875 897.89801025390625 0.53165435791015625 
710.78546142578125 897.89703369140625 0.53165525197982788 
710.78619384765625 897.896484375 0.53165584802627563 
710.7867431640625 897.89556884765625 0.53165662288665771 
710.787841796875 897.89520263671875 0.53165698051452637 
710.7880859375 897.89422607421875 0.531657874584198 
710.789306640625 897.89373779296875 0.53165829181671143 
710.789306640625 897.89263916015625 0.53165942430496216 
710.78997802734375 897.8919677734375 0.53166002035140991 
710.79437255859375 897.8939208984375 0.5316581130027771 
710.7947998046875 897.89300537109375 0.53165894746780396 
710.79534912109375 897.89227294921875 0.53165972232818604 
710.792724609375 897.8892822265625 0.5316627025604248 
710.79339599609375 897.8885498046875 0.53166341781616211 
710.79400634765625 897.88787841796875 0.53166413307189941 
710.79742431640625 897.88909912109375 0.53166288137435913 
710.7979736328125 897.88836669921875 0.53166359663009644 
710.79864501953125 897.8875732421875 0.53166437149047852 
710.7991943359375 897.8868408203125 0.53166508674621582 
710.7998046875 897.88616943359375 0.5316658616065979 
710.80035400390625 897.8853759765625 0.53166663646697998 
710.8006591796875 897.884521484375 0.53166759014129639 
710.8009033203125 897.88360595703125 0.53166860342025757 
710.80169677734375 897.883056640625 0.5316692590713501 
710.80224609375 897.88232421875 0.53167003393173218 
710.80279541015625 897.88165283203125 0.53167080879211426 
710.80401611328125 897.88140869140625 0.53167110681533813 
710.80462646484375 897.8807373046875 0.53167188167572021 
710.80517578125 897.880126953125 0.53167271614074707 
710.8070068359375 897.88031005859375 0.53167259693145752 
710.807373046875 897.87945556640625 0.53167355060577393 
710.8331298828125 897.89532470703125 0.53165626525878906 
710.83404541015625 897.89483642578125 0.53165686130523682 
710.83349609375 897.8934326171875 0.53165841102600098 
710.8348388671875 897.89324951171875 0.5316585898399353 
710.81097412109375 897.876953125 0.53167706727981567 
710.81195068359375 897.87677001953125 0.53167754411697388 
710.83587646484375 897.89080810546875 0.5316615104675293 
710.836669921875 897.89031982421875 0.53166210651397705 
710.8375244140625 897.889892578125 0.53166276216506958 
710.8385009765625 897.8895263671875 0.53166323900222778 
710.83941650390625 897.88916015625 0.53166377544403076 
710.84051513671875 897.88885498046875 0.53166425228118896 
710.84832763671875 897.89263916015625 0.53165972232818604 
710.849853515625 897.89263916015625 0.53165990114212036 
710.84991455078125 897.89178466796875 0.53166103363037109 
710.850830078125 897.89141845703125 0.53166162967681885 
710.847412109375 897.88861083984375 0.53166544437408447 
710.84814453125 897.88836669921875 0.53166615962982178 
710.82659912109375 897.8759765625 0.53168374300003052 
710.82830810546875 897.87652587890625 0.53168386220932007 
710.827392578125 897.87567138671875 0.53168600797653198 
710.83148193359375 897.87750244140625 0.53168433904647827 
710.8284912109375 897.875732421875 0.5316881537437439 
710.91705322265625 897.91302490234375 0.5316237211227417 
710.90985107421875 897.90869140625 0.53163051605224609 
710.9019775390625 897.904541015625 0.53163814544677734 
710.91162109375 897.906494140625 0.53163129091262817 
710.89959716796875 897.9017333984375 0.53164249658584595 
710.90142822265625 897.9012451171875 0.53164213895797729 
710.902587890625 897.90045166015625 0.5316423773765564 
710.90069580078125 897.8994140625 0.53164535760879517 
710.901123046875 897.8988037109375 0.5316462516784668 
710.901611328125 897.89825439453125 0.5316472053527832 
710.901611328125 897.89801025390625 0.53164863586425781 
710.9046630859375 897.8968505859375 0.53164690732955933 
710.90478515625 897.8968505859375 0.53164833784103394 
710.9068603515625 897.89520263671875 0.53164732456207275 
710.90771484375 897.8944091796875 0.53164786100387573 
710.90960693359375 897.88983154296875 0.53164607286453247 
710.90924072265625 897.8935546875 0.53164923191070557 
710.91033935546875 897.8961181640625 0.53165066242218018 
710.910888671875 897.89178466796875 0.53165018558502197 
710.91180419921875 897.8912353515625 0.53165066242218018 
710.91241455078125 897.8902587890625 0.53165125846862793 
710.9132080078125 897.88946533203125 0.53165179491043091 
710.91741943359375 897.8955078125 0.53165155649185181 
710.91485595703125 897.88812255859375 0.53165292739868164 
710.916015625 897.8880615234375 0.53165334463119507 
710.921875 897.89508056640625 0.53165185451507568 
710.91595458984375 897.88397216796875 0.53165507316589355 
710.91766357421875 897.88482666015625 0.53165525197982788 
710.92486572265625 897.89263916015625 0.53165286779403687 
710.92578125 897.89190673828125 0.53165328502655029 
710.923095703125 897.886474609375 0.53165549039840698 
710.92730712890625 897.8900146484375 0.5316542387008667 
710.92803955078125 897.8890380859375 0.53165483474731445 
710.92913818359375 897.8885498046875 0.53165513277053833 
710.9295654296875 897.88714599609375 0.53165584802627563 
710.9305419921875 897.88665771484375 0.53165626525878906 
710.9306640625 897.88494873046875 0.53165715932846069 
710.93145751953125 897.8841552734375 0.53165769577026367 
710.9324951171875 897.8836669921875 0.53165805339813232 
710.93212890625 897.88153076171875 0.53165924549102783 
710.93267822265625 897.8804931640625 0.53165996074676514 
710.934814453125 897.8812255859375 0.53165966272354126 
710.93585205078125 897.88067626953125 0.53166007995605469 
710.94866943359375 897.892578125 0.53165370225906372 
710.9383544921875 897.88018798828125 0.53166055679321289 
710.9461669921875 897.8865966796875 0.53165704011917114 
710.94512939453125 897.8839111328125 0.53165864944458008 
710.9453125 897.8824462890625 0.53165954351425171 
710.9462890625 897.8818359375 0.53165996074676514 
710.94512939453125 897.87908935546875 0.53166168928146362 
710.9488525390625 897.88116455078125 0.53166049718856812 
710.951904296875 897.88275146484375 0.53165966272354126 
710.95733642578125 897.88653564453125 0.53165739774703979 
710.95318603515625 897.880859375 0.53166085481643677 
710.9532470703125 897.8792724609375 0.53166186809539795 
710.95611572265625 897.880615234375 0.53166109323501587 
710.95697021484375 897.8797607421875 0.53166162967681885 
710.95770263671875 897.87896728515625 0.5316622257232666 
710.9583740234375 897.8780517578125 0.53166282176971436 
710.9593505859375 897.87738037109375 0.53166323900222778 
710.7772216796875 897.89923095703125 0.53165441751480103 
710.77783203125 897.8984375 0.53165513277053833 
710.77838134765625 897.89764404296875 0.53165584802627563 
710.77899169921875 897.89691162109375 0.53165650367736816 
710.783935546875 897.89923095703125 0.53165429830551147 
710.7850341796875 897.8988037109375 0.53165465593338013 
710.785400390625 897.89788818359375 0.53165555000305176 
710.7860107421875 897.8970947265625 0.53165620565414429 
710.7869873046875 897.8966064453125 0.53165674209594727 
710.7874755859375 897.89581298828125 0.53165745735168457 
710.7880859375 897.89501953125 0.53165823221206665 
710.788818359375 897.89434814453125 0.53165888786315918 
710.79327392578125 897.8963623046875 0.53165686130523682 
710.79388427734375 897.89556884765625 0.53165757656097412 
710.79437255859375 897.89471435546875 0.53165841102600098 
710.7947998046875 897.89385986328125 0.53165930509567261 
710.79534912109375 897.89306640625 0.53166002035140991 
710.79583740234375 897.89227294921875 0.53166079521179199 
710.79644775390625 897.8914794921875 0.53166157007217407 
710.79681396484375 897.89068603515625 0.53166240453720093 
710.79742431640625 897.88995361328125 0.53166311979293823 
710.7979736328125 897.88909912109375 0.53166395425796509 
710.79852294921875 897.888427734375 0.53166472911834717 
710.79937744140625 897.8878173828125 0.53166532516479492 
710.79962158203125 897.88690185546875 0.53166627883911133 
710.8001708984375 897.88616943359375 0.53166705369949341 
710.80029296875 897.8851318359375 0.53166812658309937 
710.8009033203125 897.88446044921875 0.53166890144348145 
710.80133056640625 897.8836669921875 0.53166979551315308 
710.80206298828125 897.883056640625 0.53167045116424561 
710.80291748046875 897.882568359375 0.53167104721069336 
710.8038330078125 897.8822021484375 0.53167152404785156 
710.8046875 897.8817138671875 0.53167217969894409 
710.80645751953125 897.88177490234375 0.53167212009429932 
710.80718994140625 897.88128662109375 0.53167277574539185 
710.8104248046875 897.88238525390625 0.53167164325714111 
710.83306884765625 897.89605712890625 0.53165668249130249 
710.83294677734375 897.89495849609375 0.53165793418884277 
710.83367919921875 897.8944091796875 0.53165853023529053 
710.81024169921875 897.87835693359375 0.53167665004730225 
710.8111572265625 897.87799072265625 0.53167718648910522 
710.83502197265625 897.89215087890625 0.53166115283966064 
710.83575439453125 897.8916015625 0.53166186809539795 
710.83685302734375 897.89129638671875 0.53166228532791138 
710.8377685546875 897.890869140625 0.53166282176971436 
710.83856201171875 897.8905029296875 0.53166341781616211 
710.839599609375 897.89007568359375 0.53166395425796509 
710.847412109375 897.89385986328125 0.53165942430496216 
710.84832763671875 897.89349365234375 0.53165996074676514 
710.84918212890625 897.89306640625 0.53166061639785767 
710.84967041015625 897.8924560546875 0.5316615104675293 
710.8504638671875 897.89202880859375 0.53166216611862183 
710.8480224609375 897.88983154296875 0.53166526556015015 
710.848388671875 897.8892822265625 0.53166627883911133 
710.8271484375 897.877197265625 0.53168368339538574 
710.826171875 897.876220703125 0.53168588876724243 
710.8265380859375 897.87615966796875 0.53168702125549316 
710.83160400390625 897.87841796875 0.53168463706970215 
710.91705322265625 897.91351318359375 0.53162389993667603 
710.9097900390625 897.9091796875 0.53163087368011475 
710.90179443359375 897.905029296875 0.53163844347000122 
710.90496826171875 897.90496826171875 0.53163695335388184 
710.9012451171875 897.9027099609375 0.53164124488830566 
710.89825439453125 897.90106201171875 0.53164511919021606 
710.9019775390625 897.9010009765625 0.53164303302764893 
710.900634765625 897.9000244140625 0.53164559602737427 
710.90142822265625 897.89935302734375 0.53164613246917725 
710.90167236328125 897.8988037109375 0.5316472053527832 
710.90252685546875 897.8983154296875 0.53164792060852051 
710.90380859375 897.89776611328125 0.53164803981781006 
710.90460205078125 897.89739990234375 0.53164869546890259 
710.9093017578125 897.89312744140625 0.53164428472518921 
710.909423828125 897.89178466796875 0.53164529800415039 
710.90948486328125 897.8905029296875 0.53164631128311157 
710.908935546875 897.89422607421875 0.53164964914321899 
710.90985107421875 897.89349365234375 0.5316501259803772 
710.91070556640625 897.89227294921875 0.53165048360824585 
710.9124755859375 897.89532470703125 0.53165137767791748 
710.9122314453125 897.89080810546875 0.53165161609649658 
710.91314697265625 897.89007568359375 0.53165209293365479 
710.91387939453125 897.889404296875 0.53165274858474731 
710.914794921875 897.88885498046875 0.53165322542190552 
710.91650390625 897.8897705078125 0.53165346384048462 
710.92095947265625 897.89483642578125 0.53165256977081299 
710.91595458984375 897.884765625 0.53165537118911743 
710.91766357421875 897.885498046875 0.53165555000305176 
710.9246826171875 897.8934326171875 0.53165328502655029 
710.92547607421875 897.89251708984375 0.5316537618637085 
710.92266845703125 897.88671875 0.53165596723556519 
710.9271240234375 897.890625 0.53165465593338013 
710.9278564453125 897.88970947265625 0.53165519237518311 
710.928466796875 897.88861083984375 0.53165572881698608 
710.9295654296875 897.8880615234375 0.53165608644485474 
710.930908203125 897.88787841796875 0.53165632486343384 
710.931640625 897.886962890625 0.53165686130523682 
710.9327392578125 897.88641357421875 0.53165721893310547 
710.93231201171875 897.88421630859375 0.53165847063064575 
710.9312744140625 897.88153076171875 0.53165996074676514 
710.935302734375 897.8841552734375 0.53165870904922485 
710.93475341796875 897.8819580078125 0.53166002035140991 
710.93572998046875 897.88134765625 0.53166043758392334 
710.944091796875 897.88861083984375 0.53165662288665771 
710.93768310546875 897.8802490234375 0.5316612720489502 
710.94561767578125 897.886962890625 0.5316576361656189 
710.94482421875 897.88433837890625 0.53165912628173828 
710.94598388671875 897.88397216796875 0.53165942430496216 
710.9434814453125 897.87982177734375 0.53166186809539795 
710.94464111328125 897.87933349609375 0.5316622257232666 
710.94854736328125 897.88177490234375 0.53166091442108154 
710.95672607421875 897.8883056640625 0.53165709972381592 
710.95745849609375 897.887451171875 0.5316576361656189 
710.95318603515625 897.88165283203125 0.53166115283966064 
710.9530029296875 897.8798828125 0.5316622257232666 
710.95819091796875 897.88336181640625 0.53166019916534424 
710.95697021484375 897.880615234375 0.53166186809539795 
710.957275390625 897.87939453125 0.5316627025604248 
710.9580078125 897.87847900390625 0.53166329860687256 
710.958984375 897.8779296875 0.53166371583938599 
710.7779541015625 897.89935302734375 0.53165531158447266 
710.77850341796875 897.8985595703125 0.53165602684020996 
710.77911376953125 897.89776611328125 0.53165674209594727 
710.77984619140625 897.8970947265625 0.53165739774703979 
710.78466796875 897.89935302734375 0.53165513277053833 
710.78582763671875 897.89898681640625 0.53165555000305176 
710.786376953125 897.898193359375 0.53165626525878906 
710.78692626953125 897.89739990234375 0.53165698051452637 
710.7874755859375 897.89654541015625 0.53165781497955322 
710.79217529296875 897.89874267578125 0.53165560960769653 
710.79266357421875 897.89788818359375 0.53165644407272339 
710.79327392578125 897.89715576171875 0.53165715932846069 
710.79364013671875 897.89617919921875 0.53165805339813232 
710.79437255859375 897.8955078125 0.53165870904922485 
710.79473876953125 897.8946533203125 0.53165960311889648 
710.79266357421875 897.89202880859375 0.53166216611862183 
710.79339599609375 897.891357421875 0.53166288137435913 
710.7962646484375 897.89227294921875 0.53166192770004272 
710.79681396484375 897.8914794921875 0.53166276216506958 
710.79742431640625 897.89068603515625 0.53166347742080688 
710.7979736328125 897.8900146484375 0.53166419267654419 
710.79852294921875 897.8892822265625 0.53166496753692627 
710.798828125 897.8883056640625 0.53166598081588745 
710.799560546875 897.88763427734375 0.53166663646697998 
710.7998046875 897.88671875 0.53166759014129639 
710.80047607421875 897.8861083984375 0.53166830539703369 
710.8009033203125 897.88531494140625 0.53166919946670532 
710.80145263671875 897.8846435546875 0.5316699743270874 
710.80218505859375 897.884033203125 0.53167062997817993 
710.80328369140625 897.8836669921875 0.53167110681533813 
710.8040771484375 897.88311767578125 0.53167170286178589 
710.80633544921875 897.8836669921875 0.53167122602462769 
710.8055419921875 897.882080078125 0.53167295455932617 
710.806640625 897.88177490234375 0.53167343139648438 
710.80792236328125 897.88165283203125 0.53167372941970825 
710.83203125 897.896240234375 0.5316576361656189 
710.83306884765625 897.89581298828125 0.5316581130027771 
710.834228515625 897.8955078125 0.53165841102600098 
710.810546875 897.87939453125 0.5316767692565918 
710.81146240234375 897.87908935546875 0.53167736530303955 
710.83502197265625 897.8929443359375 0.53166145086288452 
710.8359375 897.892578125 0.5316619873046875 
710.8367919921875 897.89208984375 0.53166258335113525 
710.83795166015625 897.89178466796875 0.53166300058364868 
710.83856201171875 897.8912353515625 0.53166371583938599 
710.83978271484375 897.89105224609375 0.53166407346725464 
710.845458984375 897.89349365234375 0.53166115283966064 
710.8463134765625 897.89306640625 0.53166180849075317 
710.8470458984375 897.89263916015625 0.5316624641418457 
710.84832763671875 897.8924560546875 0.53166282176971436 
710.84722900390625 897.89105224609375 0.53166484832763672 
710.84783935546875 897.890625 0.5316656231880188 
710.82598876953125 897.87799072265625 0.53168350458145142 
710.82733154296875 897.87823486328125 0.53168386220932007 
710.825439453125 897.8768310546875 0.53168666362762451 
710.830322265625 897.87896728515625 0.53168445825576782 
710.82879638671875 897.87799072265625 0.53168708086013794 
710.91632080078125 897.91375732421875 0.53162467479705811 
710.90960693359375 897.90972900390625 0.53163111209869385 
710.90911865234375 897.90826416015625 0.53163254261016846 
710.90093994140625 897.90423583984375 0.53164047002792358 
710.900634765625 897.9031982421875 0.53164201974868774 
710.90008544921875 897.902099609375 0.53164368867874146 
710.90185546875 897.901611328125 0.53164339065551758 
710.9002685546875 897.9005126953125 0.53164607286453247 
710.90130615234375 897.89996337890625 0.53164637088775635 
710.90142822265625 897.89935302734375 0.53164768218994141 
710.9019775390625 897.89898681640625 0.53164863586425781 
710.9044189453125 897.8980712890625 0.53164750337600708 
710.904052734375 897.8980712890625 0.53164947032928467 
710.90643310546875 897.896484375 0.53164821863174438 
710.9093017578125 897.892333984375 0.53164547681808472 
710.909423828125 897.89105224609375 0.53164660930633545 
710.90875244140625 897.89471435546875 0.53165000677108765 
710.9097900390625 897.89739990234375 0.53165155649185181 
710.910400390625 897.892822265625 0.5316508412361145 
710.912109375 897.8953857421875 0.53165185451507568 
710.91314697265625 897.89453125 0.53165209293365479 
710.912841796875 897.890625 0.53165251016616821 
710.91357421875 897.88983154296875 0.53165310621261597 
710.91461181640625 897.88946533203125 0.53165358304977417 
710.91619873046875 897.89013671875 0.53165388107299805 
710.9200439453125 897.89434814453125 0.53165328502655029 
710.922119140625 897.89520263671875 0.53165322542190552 
710.9215087890625 897.89202880859375 0.5316542387008667 
710.92401123046875 897.8934326171875 0.53165394067764282 
710.92529296875 897.8931884765625 0.53165411949157715 
710.926025390625 897.89208984375 0.53165465593338013 
710.92303466796875 897.88629150390625 0.53165692090988159 
710.9273681640625 897.8900146484375 0.53165572881698608 
710.92822265625 897.88909912109375 0.53165620565414429 
710.92938232421875 897.88873291015625 0.53165650367736816 
710.92950439453125 897.88702392578125 0.53165739774703979 
710.93011474609375 897.88592529296875 0.53165799379348755 
710.93182373046875 897.88629150390625 0.53165799379348755 
710.93304443359375 897.88592529296875 0.53165829181671143 
710.93121337890625 897.8822021484375 0.53166025876998901 
710.93255615234375 897.88201904296875 0.53166055679321289 
710.93585205078125 897.88397216796875 0.53165966272354126 
710.93499755859375 897.88140869140625 0.53166109323501587 
710.94830322265625 897.8939208984375 0.53165453672409058 
710.94427490234375 897.8880615234375 0.53165769577026367 
710.9451904296875 897.88726806640625 0.53165823221206665 
710.94610595703125 897.8865966796875 0.53165864944458008 
710.9451904296875 897.88397216796875 0.53166013956069946 
710.94329833984375 897.88043212890625 0.5316622257232666 
710.94427490234375 897.87982177734375 0.5316627025604248 
710.9483642578125 897.88238525390625 0.5316612720489502 
710.956787109375 897.8892822265625 0.53165733814239502 
710.957275390625 897.88812255859375 0.53165799379348755 
710.957275390625 897.88653564453125 0.53165894746780396 
710.95281982421875 897.8804931640625 0.53166264295578003 
710.95599365234375 897.882080078125 0.5316617488861084 
710.95635986328125 897.880859375 0.53166258335113525 
710.9569091796875 897.87982177734375 0.53166317939758301 
710.95751953125 897.87890625 0.53166383504867554 
710.958740234375 897.87847900390625 0.53166413307189941 
710.77862548828125 897.8995361328125 0.53165620565414429 
710.77935791015625 897.8988037109375 0.53165686130523682 
710.7799072265625 897.8980712890625 0.53165757656097412 
710.78057861328125 897.897216796875 0.5316583514213562 
710.78558349609375 897.89959716796875 0.53165596723556519 
710.78643798828125 897.89910888671875 0.53165644407272339 
710.78692626953125 897.89825439453125 0.53165727853775024 
710.78753662109375 897.89752197265625 0.53165793418884277 
710.78826904296875 897.89678955078125 0.53165864944458008 
710.7889404296875 897.89605712890625 0.53165930509567261 
710.78948974609375 897.895263671875 0.53166007995605469 
710.793701171875 897.8970947265625 0.53165823221206665 
710.794189453125 897.896240234375 0.53165912628173828 
710.7947998046875 897.8955078125 0.53165978193283081 
710.79937744140625 897.89752197265625 0.53165781497955322 
710.794189453125 897.89276123046875 0.53166252374649048 
710.79437255859375 897.8917236328125 0.53166353702545166 
710.794921875 897.89093017578125 0.53166437149047852 
710.7972412109375 897.8914794921875 0.53166383504867554 
710.798095703125 897.890869140625 0.53166443109512329 
710.79833984375 897.88995361328125 0.53166544437408447 
710.7987060546875 897.88909912109375 0.5316663384437561 
710.79901123046875 897.88818359375 0.53166729211807251 
710.799560546875 897.88739013671875 0.53166806697845459 
710.8001708984375 897.88671875 0.53166884183883667 
710.8009033203125 897.88616943359375 0.5316694974899292 
710.8016357421875 897.88555908203125 0.53167015314102173 
710.8023681640625 897.88494873046875 0.53167080879211426 
710.80352783203125 897.884765625 0.53167110681533813 
710.80450439453125 897.88433837890625 0.53167164325714111 
710.8055419921875 897.88397216796875 0.53167212009429932 
710.80615234375 897.88336181640625 0.5316728949546814 
710.80963134765625 897.88458251953125 0.53167158365249634 
710.80718994140625 897.882080078125 0.53167456388473511 
710.8079833984375 897.88153076171875 0.53167521953582764 
710.8323974609375 897.896240234375 0.53165876865386963 
710.809814453125 897.88079833984375 0.53167635202407837 
710.81072998046875 897.88043212890625 0.53167688846588135 
710.81170654296875 897.880126953125 0.53167742490768433 
710.835205078125 897.89385986328125 0.53166157007217407 
710.83612060546875 897.89349365234375 0.53166210651397705 
710.8370361328125 897.89300537109375 0.5316627025604248 
710.8377685546875 897.892578125 0.53166335821151733 
710.8387451171875 897.8922119140625 0.53166383504867554 
710.8399658203125 897.8919677734375 0.53166425228118896 
710.84222412109375 897.89239501953125 0.53166383504867554 
710.84320068359375 897.89208984375 0.53166431188583374 
710.8441162109375 897.8917236328125 0.53166490793228149 
710.82342529296875 897.87921142578125 0.53168165683746338 
710.84637451171875 897.89141845703125 0.53166574239730835 
710.8253173828125 897.87908935546875 0.53168290853500366 
710.82623291015625 897.8790283203125 0.53168362379074097 
710.8275146484375 897.87921142578125 0.53168398141860962 
710.826171875 897.878173828125 0.53168642520904541 
710.83056640625 897.880126953125 0.53168445825576782 
710.91632080078125 897.914306640625 0.53162479400634766 
710.90960693359375 897.9102783203125 0.53163135051727295 
710.9033203125 897.9068603515625 0.53163754940032959 
710.906982421875 897.90673828125 0.53163570165634155 
710.89923095703125 897.9034423828125 0.53164339065551758 
710.90130615234375 897.9029541015625 0.53164279460906982 
710.9014892578125 897.902099609375 0.53164392709732056 
710.90069580078125 897.90118408203125 0.53164589405059814 
710.9019775390625 897.90057373046875 0.53164607286453247 
710.9139404296875 897.89910888671875 0.53163570165634155 
710.90185546875 897.89947509765625 0.53164893388748169 
710.90423583984375 897.89862060546875 0.53164792060852051 
710.90399169921875 897.89862060546875 0.53164970874786377 
710.905517578125 897.897705078125 0.53164947032928467 
710.9072265625 897.89605712890625 0.53164881467819214 
710.90924072265625 897.89190673828125 0.5316469669342041 
710.90869140625 897.8951416015625 0.53165024518966675 
710.90948486328125 897.89422607421875 0.53165066242218018 
710.9107666015625 897.8970947265625 0.53165203332901001 
710.9111328125 897.89276123046875 0.53165173530578613 
710.912841796875 897.89508056640625 0.53165245056152344 
710.91259765625 897.89105224609375 0.53165286779403687 
710.91339111328125 897.89031982421875 0.53165346384048462 
710.91448974609375 897.8902587890625 0.53165388107299805 
710.9178466796875 897.89404296875 0.53165364265441895 
710.91448974609375 897.88592529296875 0.53165555000305176 
710.91815185546875 897.889892578125 0.53165507316589355 
710.92120361328125 897.8924560546875 0.53165465593338013 
710.923583984375 897.89373779296875 0.5316544771194458 
710.925048828125 897.893798828125 0.53165453672409058 
710.9256591796875 897.89251708984375 0.53165519237518311 
710.92266845703125 897.88665771484375 0.53165745735168457 
710.9271240234375 897.8905029296875 0.53165614604949951 
710.928466796875 897.89031982421875 0.53165632486343384 
710.928955078125 897.888916015625 0.53165704011917114 
710.92919921875 897.88751220703125 0.531657874584198 
710.930419921875 897.88714599609375 0.5316581130027771 
710.93084716796875 897.885986328125 0.5316588282585144 
710.93218994140625 897.8857421875 0.53165900707244873 
710.9342041015625 897.88641357421875 0.53165888786315918 
710.93511962890625 897.8857421875 0.53165936470031738 
710.9398193359375 897.88916015625 0.53165769577026367 
710.93511962890625 897.88226318359375 0.53166133165359497 
710.9437255859375 897.88995361328125 0.53165739774703979 
710.9442138671875 897.88873291015625 0.5316581130027771 
710.9490966796875 897.89227294921875 0.53165632486343384 
710.9434814453125 897.8846435546875 0.53166049718856812 
710.94512939453125 897.88470458984375 0.53166049718856812 
710.943115234375 897.8809814453125 0.53166264295578003 
710.94390869140625 897.8802490234375 0.53166317939758301 
710.94830322265625 897.88311767578125 0.53166162967681885 
710.95654296875 897.88983154296875 0.53165775537490845 
710.95184326171875 897.88348388671875 0.5316615104675293 
710.95672607421875 897.8868408203125 0.53165960311889648 
710.956787109375 897.88531494140625 0.53166055679321289 
710.95318603515625 897.880126953125 0.53166371583938599 
710.95635986328125 897.8817138671875 0.53166282176971436 
710.95709228515625 897.88079833984375 0.53166335821151733 
710.9569091796875 897.87908935546875 0.53166449069976807 
710.958251953125 897.87890625 0.53166472911834717 
710.95965576171875 897.878662109375 0.53166490793228149 
710.77850341796875 897.90020751953125 0.53165656328201294 
710.77935791015625 897.899658203125 0.53165709972381592 
710.7799072265625 897.89886474609375 0.531657874584198 
710.78057861328125 897.8980712890625 0.53165853023529053 
710.78118896484375 897.89739990234375 0.53165924549102783 
710.786376953125 897.89984130859375 0.53165680170059204 
710.787109375 897.899169921875 0.53165739774703979 
710.7877197265625 897.89837646484375 0.53165817260742188 
710.7884521484375 897.89776611328125 0.53165876865386963 
710.79254150390625 897.8994140625 0.53165709972381592 
710.79302978515625 897.89862060546875 0.531657874584198 
710.79046630859375 897.8956298828125 0.53166079521179199 
710.791015625 897.8948974609375 0.53166157007217407 
710.79156494140625 897.89404296875 0.53166234493255615 
710.79815673828125 897.89752197265625 0.53165888786315918 
710.79974365234375 897.89739990234375 0.53165894746780396 
710.78875732421875 897.88873291015625 0.53166776895523071 
710.79046630859375 897.888671875 0.53166776895523071 
710.79107666015625 897.8880615234375 0.53166848421096802 
710.7916259765625 897.8873291015625 0.5316692590713501 
710.79718017578125 897.8900146484375 0.53166651725769043 
710.79852294921875 897.88983154296875 0.53166669607162476 
710.7987060546875 897.8887939453125 0.53166776895523071 
710.79937744140625 897.88818359375 0.53166848421096802 
710.80010986328125 897.88763427734375 0.53166913986206055 
710.80072021484375 897.88690185546875 0.53166991472244263 
710.80108642578125 897.8861083984375 0.53167080879211426 
710.8031005859375 897.88629150390625 0.53167062997817993 
710.80352783203125 897.88555908203125 0.53167140483856201 
710.8046875 897.8853759765625 0.53167182207107544 
710.80572509765625 897.88494873046875 0.53167229890823364 
710.80926513671875 897.88623046875 0.53167098760604858 
710.8065185546875 897.88348388671875 0.5316740870475769 
710.8072509765625 897.8829345703125 0.53167474269866943 
710.80810546875 897.88250732421875 0.53167539834976196 
710.8089599609375 897.882080078125 0.53167599439620972 
710.80999755859375 897.8818359375 0.53167647123336792 
710.8109130859375 897.88134765625 0.53167706727981567 
710.83441162109375 897.89520263671875 0.53166121244430542 
710.83538818359375 897.8948974609375 0.53166168928146362 
710.83612060546875 897.894287109375 0.53166240453720093 
710.8370361328125 897.89385986328125 0.53166300058364868 
710.838134765625 897.89349365234375 0.53166341781616211 
710.839111328125 897.89324951171875 0.53166389465332031 
710.8414306640625 897.8936767578125 0.53166347742080688 
710.84246826171875 897.893310546875 0.53166389465332031 
710.840576171875 897.89141845703125 0.53166651725769043 
710.82244873046875 897.8802490234375 0.53168129920959473 
710.82366943359375 897.8802490234375 0.53168171644210815 
710.82098388671875 897.878173828125 0.53168511390686035 
710.82470703125 897.879638671875 0.53168368339538574 
710.8265380859375 897.880126953125 0.53168368339538574 
710.824951171875 897.8787841796875 0.53168624639511108 
710.82568359375 897.8787841796875 0.53168714046478271 
710.82757568359375 897.87945556640625 0.53168720006942749 
710.9114990234375 897.91302490234375 0.53162884712219238 
710.9090576171875 897.91070556640625 0.53163188695907593 
710.90704345703125 897.90869140625 0.53163468837738037 
710.8997802734375 897.9051513671875 0.53164184093475342 
710.90087890625 897.90447998046875 0.53164219856262207 
710.90087890625 897.90350341796875 0.5316433310508728 
710.90179443359375 897.9027099609375 0.53164386749267578 
710.900146484375 897.9017333984375 0.53164660930633545 
710.900634765625 897.9010009765625 0.53164750337600708 
710.90087890625 897.90057373046875 0.53164863586425781 
710.90234375 897.89990234375 0.53164863586425781 
710.90216064453125 897.89971923828125 0.53165024518966675 
710.90380859375 897.89910888671875 0.53165006637573242 
710.9051513671875 897.8983154296875 0.53165000677108765 
710.90704345703125 897.896728515625 0.53164923191070557 
710.90924072265625 897.892333984375 0.53164708614349365 
710.90850830078125 897.89569091796875 0.53165066242218018 
710.9093017578125 897.89501953125 0.53165113925933838 
710.91015625 897.89404296875 0.53165155649185181 
710.9114990234375 897.896240234375 0.53165256977081299 
710.91259765625 897.89544677734375 0.53165292739868164 
710.91241455078125 897.89154052734375 0.53165322542190552 
710.913330078125 897.891357421875 0.53165382146835327 
710.9144287109375 897.89093017578125 0.5316542387008667 
710.917236328125 897.89404296875 0.5316542387008667 
710.91839599609375 897.89349365234375 0.53165453672409058 
710.91796875 897.89056396484375 0.53165543079376221 
710.9202880859375 897.89215087890625 0.53165531158447266 
710.92266845703125 897.89349365234375 0.53165513277053833 
710.92486572265625 897.89459228515625 0.531654953956604 
710.9254150390625 897.8931884765625 0.53165555000305176 
710.92620849609375 897.89227294921875 0.53165602684020996 
710.92364501953125 897.886962890625 0.5316581130027771 
710.9278564453125 897.8905029296875 0.53165698051452637 
710.92840576171875 897.8892822265625 0.53165757656097412 
710.9293212890625 897.8885498046875 0.53165805339813232 
710.929931640625 897.887451171875 0.53165864944458008 
710.9305419921875 897.88653564453125 0.53165924549102783 
710.93157958984375 897.88592529296875 0.53165966272354126 
710.93890380859375 897.89251708984375 0.53165662288665771 
710.93377685546875 897.8848876953125 0.53166037797927856 
710.9366455078125 897.886474609375 0.53165978193283081 
710.94598388671875 897.89508056640625 0.53165549039840698 
710.94329833984375 897.89031982421875 0.53165793418884277 
710.94390869140625 897.88934326171875 0.5316585898399353 
710.9444580078125 897.88824462890625 0.53165918588638306 
710.94329833984375 897.88531494140625 0.53166085481643677 
710.94384765625 897.88421630859375 0.5316615104675293 
710.94219970703125 897.88092041015625 0.53166347742080688 
710.94354248046875 897.8807373046875 0.53166365623474121 
710.94866943359375 897.88433837890625 0.53166168928146362 
710.95574951171875 897.8900146484375 0.53165853023529053 
710.95135498046875 897.88385009765625 0.53166204690933228 
710.95166015625 897.882568359375 0.53166294097900391 
710.9547119140625 897.88397216796875 0.53166210651397705 
710.955078125 897.88287353515625 0.53166282176971436 
710.955810546875 897.8819580078125 0.53166341781616211 
710.958740234375 897.88330078125 0.53166264295578003 
710.95928955078125 897.8822021484375 0.53166335821151733 
710.9578857421875 897.8792724609375 0.53166520595550537 
710.96002197265625 897.87982177734375 0.53166490793228149 
710.779296875 897.900390625 0.53165745735168457 
710.78009033203125 897.8997802734375 0.53165805339813232 
710.78057861328125 897.89892578125 0.5316588282585144 
710.7813720703125 897.89825439453125 0.53165942430496216 
710.78192138671875 897.8974609375 0.53166019916534424 
710.787109375 897.89996337890625 0.53165775537490845 
710.787841796875 897.8992919921875 0.5316583514213562 
710.78857421875 897.898681640625 0.53165894746780396 
710.7891845703125 897.89788818359375 0.53165972232818604 
710.78973388671875 897.8970947265625 0.53166043758392334 
710.79046630859375 897.896484375 0.53166109323501587 
710.79388427734375 897.897705078125 0.53165978193283081 
710.79443359375 897.89691162109375 0.53166055679321289 
710.794921875 897.89605712890625 0.53166139125823975 
710.7930908203125 897.8936767578125 0.53166383504867554 
