ply
format ascii 1.0
comment VTK generated PLY File
obj_info vtkPolyData points and polygons: vtk4.0
element vertex 840
property float x
property float y
property float z
element face 0
property list uchar int vertex_indices
end_header
936.405517578125 804.8729248046875 0.4337458610534668 
936.40106201171875 804.8726806640625 0.43374794721603394 
936.40167236328125 804.87274169921875 0.4337482750415802 
936.405029296875 804.87286376953125 0.43374761939048767 
936.4058837890625 804.873046875 0.43374782800674438 
936.40924072265625 804.87298583984375 0.43374723196029663 
936.40850830078125 804.87310791015625 0.43374800682067871 
936.40789794921875 804.873291015625 0.43374866247177124 
936.4091796875 804.87347412109375 0.43374872207641602 
936.41204833984375 804.87353515625 0.4337482750415802 
936.41259765625 804.8736572265625 0.43374857306480408 
936.41290283203125 804.8740234375 0.43374887108802795 
936.4149169921875 804.8740234375 0.43374872207641602 
936.41558837890625 804.8743896484375 0.43374896049499512 
936.4351806640625 804.871826171875 0.43374365568161011 
936.4185791015625 804.87469482421875 0.43374890089035034 
936.42083740234375 804.874755859375 0.43374863266944885 
936.42071533203125 804.8753662109375 0.43374902009963989 
936.421630859375 804.87579345703125 0.43374910950660706 
936.424072265625 804.87579345703125 0.43374881148338318 
936.42413330078125 804.87646484375 0.43374910950660706 
936.42535400390625 804.87689208984375 0.43374907970428467 
936.44256591796875 804.87139892578125 0.43374553322792053 
936.44482421875 804.870849609375 0.43374547362327576 
936.44793701171875 804.86981201171875 0.43374529480934143 
936.44873046875 804.8697509765625 0.43374556303024292 
936.45037841796875 804.8692626953125 0.43374568223953247 
936.45159912109375 804.86895751953125 0.43374592065811157 
936.452392578125 804.8690185546875 0.43374615907669067 
936.4541015625 804.86834716796875 0.43374630808830261 
936.45513916015625 804.8680419921875 0.4337465763092041 
936.4560546875 804.86785888671875 0.43374684453010559 
936.45697021484375 804.86785888671875 0.43374708294868469 
936.4578857421875 804.86773681640625 0.43374732136726379 
936.4593505859375 804.86700439453125 0.43374761939048767 
936.44903564453125 804.884521484375 0.43374624848365784 
936.4503173828125 804.88653564453125 0.43374574184417725 
936.46368408203125 804.863525390625 0.43374878168106079 
936.46466064453125 804.86273193359375 0.43374919891357422 
936.46551513671875 804.86236572265625 0.43374961614608765 
936.46563720703125 804.864501953125 0.43374946713447571 
936.468505859375 804.854736328125 0.43375197052955627 
936.46856689453125 804.856689453125 0.4337519109249115 
936.46978759765625 804.84906005859375 0.4337543249130249 
936.469970703125 804.8480224609375 0.43375512957572937 
936.46978759765625 804.81005859375 0.43376734852790833 
936.47393798828125 804.91278076171875 0.43373507261276245 
936.47088623046875 804.8509521484375 0.43375551700592041 
936.47027587890625 804.84375 0.4337584376335144 
936.47564697265625 804.87152099609375 0.43374869227409363 
936.47412109375 804.85870361328125 0.43375366926193237 
936.48028564453125 804.87933349609375 0.43374580144882202 
936.4766845703125 804.8616943359375 0.43375292420387268 
936.47796630859375 804.86248779296875 0.43375280499458313 
936.479736328125 804.86431884765625 0.4337521493434906 
936.47723388671875 804.85516357421875 0.43375635147094727 
936.47796630859375 804.85504150390625 0.43375667929649353 
936.4818115234375 804.86151123046875 0.43375393748283386 
936.48223876953125 804.8599853515625 0.43375480175018311 
936.48223876953125 804.858154296875 0.43375587463378906 
936.48309326171875 804.85784912109375 0.43375617265701294 
936.48455810546875 804.85858154296875 0.433756023645401 
936.4859619140625 804.8592529296875 0.43375587463378906 
936.4869384765625 804.8590087890625 0.43375611305236816 
936.4879150390625 804.85888671875 0.43375638127326965 
936.48876953125 804.8585205078125 0.43375673890113831 
936.48968505859375 804.85833740234375 0.43375700712203979 
936.49072265625 804.858154296875 0.43375727534294128 
936.49163818359375 804.85797119140625 0.43375754356384277 
936.4954833984375 804.8616943359375 0.43375563621520996 
936.4935302734375 804.85748291015625 0.43375810980796814 
936.49786376953125 804.86151123046875 0.43375593423843384 
936.4984130859375 804.86083984375 0.43375653028488159 
936.4998779296875 804.8612060546875 0.43375641107559204 
936.49713134765625 804.8564453125 0.43375933170318604 
936.49847412109375 804.856689453125 0.43375933170318604 
936.4993896484375 804.85638427734375 0.4337596595287323 
936.5067138671875 804.863525390625 0.4337555468082428 
936.50555419921875 804.86077880859375 0.43375730514526367 
936.5020751953125 804.85552978515625 0.43376061320304871 
936.51324462890625 804.86651611328125 0.43375402688980103 
936.51434326171875 804.86627197265625 0.43375426530838013 
936.51361083984375 804.8641357421875 0.43375569581985474 
936.515380859375 804.86456298828125 0.43375548720359802 
936.51861572265625 804.86663818359375 0.4337543249130249 
936.51806640625 804.86468505859375 0.43375563621520996 
936.519287109375 804.8646240234375 0.43375572562217712 
936.51983642578125 804.86383056640625 0.43375635147094727 
936.52032470703125 804.863037109375 0.43375694751739502 
936.5228271484375 804.86431884765625 0.43375623226165771 
936.52178955078125 804.86199951171875 0.43375784158706665 
936.5220947265625 804.861083984375 0.43375855684280396 
936.5164794921875 804.85455322265625 0.43376293778419495 
936.51678466796875 804.85369873046875 0.43376362323760986 
936.52142333984375 804.85687255859375 0.43376165628433228 
936.5223388671875 804.8565673828125 0.43376195430755615 
936.52313232421875 804.856201171875 0.43376234173774719 
936.53155517578125 804.86273193359375 0.43375805020332336 
936.5228271484375 804.8536376953125 0.43376427888870239 
936.5262451171875 804.85565185546875 0.43376302719116211 
936.53326416015625 804.86083984375 0.43375959992408752 
936.53265380859375 804.85906982421875 0.43376091122627258 
936.532958984375 804.8582763671875 0.43376156687736511 
936.534912109375 804.85882568359375 0.43376129865646362 
936.35186767578125 804.87701416015625 0.43373864889144897 
936.35211181640625 804.8765869140625 0.43373918533325195 
936.35125732421875 804.8759765625 0.43374019861221313 
936.3516845703125 804.875732421875 0.43374064564704895 
936.3519287109375 804.87542724609375 0.43374118208885193 
936.35211181640625 804.87506103515625 0.43374177813529968 
936.35247802734375 804.874755859375 0.43374228477478027 
936.35272216796875 804.87451171875 0.43374279141426086 
936.35302734375 804.8741455078125 0.43374332785606384 
936.35333251953125 804.8739013671875 0.43374383449554443 
936.359375 804.875 0.43374201655387878 
936.361083984375 804.8751220703125 0.43374195694923401 
936.36126708984375 804.8748779296875 0.4337424635887146 
936.36163330078125 804.8746337890625 0.4337429404258728 
936.361328125 804.87420654296875 0.4337436854839325 
936.36181640625 804.87396240234375 0.4337441623210907 
936.3629150390625 804.8739013671875 0.43374431133270264 
936.36273193359375 804.87353515625 0.43374502658843994 
936.3651123046875 804.87384033203125 0.43374469876289368 
936.38031005859375 804.8768310546875 0.43373915553092957 
936.38067626953125 804.87652587890625 0.43373969197273254 
936.38677978515625 804.87750244140625 0.43373787403106689 
936.38787841796875 804.8773193359375 0.43373808264732361 
936.380126953125 804.87548828125 0.43374177813529968 
936.3890380859375 804.87689208984375 0.43373885750770569 
936.38482666015625 804.87579345703125 0.43374115228652954 
936.3848876953125 804.8756103515625 0.43374174833297729 
936.38568115234375 804.87542724609375 0.43374207615852356 
936.385986328125 804.875244140625 0.43374252319335938 
936.3941650390625 804.87628173828125 0.43373998999595642 
936.38232421875 804.87408447265625 0.43374520540237427 
936.38067626953125 804.87359619140625 0.43374639749526978 
936.385986328125 804.87420654296875 0.43374493718147278 
936.38653564453125 804.87408447265625 0.43374538421630859 
936.387451171875 804.8741455078125 0.43374556303024292 
936.38861083984375 804.8740234375 0.43374571204185486 
936.38873291015625 804.87384033203125 0.43374627828598022 
936.4058837890625 804.87579345703125 0.43374043703079224 
936.40673828125 804.8756103515625 0.43374073505401611 
936.3907470703125 804.87384033203125 0.43374720215797424 
936.39154052734375 804.87384033203125 0.43374744057655334 
936.3955078125 804.87408447265625 0.43374660611152649 
936.395263671875 804.8740234375 0.43374723196029663 
936.40130615234375 804.8743896484375 0.43374559283256531 
936.40106201171875 804.87432861328125 0.43374621868133545 
936.40472412109375 804.8743896484375 0.43374550342559814 
936.404541015625 804.8743896484375 0.43374612927436829 
936.404296875 804.8743896484375 0.43374669551849365 
936.40386962890625 804.8743896484375 0.43374738097190857 
936.40545654296875 804.87445068359375 0.43374735116958618 
936.40582275390625 804.87457275390625 0.43374770879745483 
936.40936279296875 804.87469482421875 0.4337470531463623 
936.40777587890625 804.87481689453125 0.4337480366230011 
936.408935546875 804.87493896484375 0.43374815583229065 
936.41168212890625 804.875 0.43374776840209961 
936.4112548828125 804.875244140625 0.43374833464622498 
936.41143798828125 804.8756103515625 0.4337487518787384 
936.41302490234375 804.87567138671875 0.43374872207641602 
936.41485595703125 804.8758544921875 0.43374854326248169 
936.4176025390625 804.8758544921875 0.43374815583229065 
936.41650390625 804.87640380859375 0.43374887108802795 
936.41815185546875 804.87664794921875 0.43374878168106079 
936.41949462890625 804.8768310546875 0.43374878168106079 
936.421142578125 804.877197265625 0.43374869227409363 
936.42236328125 804.87744140625 0.43374872207641602 
936.42303466796875 804.8780517578125 0.43374887108802795 
936.4248046875 804.87823486328125 0.43374869227409363 
936.4251708984375 804.87908935546875 0.43374887108802795 
936.4302978515625 804.8780517578125 0.4337480366230011 
936.43011474609375 804.8790283203125 0.43374830484390259 
936.43280029296875 804.87890625 0.43374794721603394 
936.43121337890625 804.88092041015625 0.43374836444854736 
936.434326171875 804.88055419921875 0.43374800682067871 
936.434814453125 804.88177490234375 0.43374794721603394 
936.4503173828125 804.8717041015625 0.43374636769294739 
936.452880859375 804.870361328125 0.43374645709991455 
936.45501708984375 804.869140625 0.43374663591384888 
936.456298828125 804.86871337890625 0.43374687433242798 
936.45721435546875 804.8685302734375 0.43374714255332947 
936.4581298828125 804.8685302734375 0.43374738097190857 
936.4593505859375 804.86798095703125 0.43374764919281006 
936.44927978515625 804.88665771484375 0.4337458610534668 
936.46038818359375 804.86944580078125 0.43374791741371155 
936.46209716796875 804.86773681640625 0.43374839425086975 
936.46429443359375 804.86407470703125 0.43374931812286377 
936.46466064453125 804.86553955078125 0.43374928832054138 
936.46539306640625 804.8658447265625 0.43374946713447571 
936.4678955078125 804.85687255859375 0.43375188112258911 
936.469482421875 804.8477783203125 0.43375465273857117 
936.4693603515625 804.849853515625 0.43375459313392639 
936.47003173828125 804.8287353515625 0.4337613582611084 
936.46966552734375 804.845458984375 0.43375691771507263 
936.46734619140625 804.8099365234375 0.43376904726028442 
936.470703125 804.8521728515625 0.43375557661056519 
936.464599609375 804.80902099609375 0.43377134203910828 
936.47393798828125 804.864013671875 0.43375194072723389 
936.478515625 804.87957763671875 0.43374618887901306 
936.4801025390625 804.87933349609375 0.43374624848365784 
936.4765625 804.86260986328125 0.43375304341316223 
936.478515625 804.865234375 0.4337521493434906 
936.47772216796875 804.860107421875 0.43375447392463684 
936.48028564453125 804.8641357421875 0.43375295400619507 
936.478515625 804.85748291015625 0.43375608325004578 
936.48114013671875 804.86114501953125 0.43375462293624878 
936.481689453125 804.86016845703125 0.43375527858734131 
936.48199462890625 804.85882568359375 0.43375608325004578 
936.48309326171875 804.8590087890625 0.43375620245933533 
936.484375 804.85931396484375 0.43375623226165771 
936.48626708984375 804.86090087890625 0.43375560641288757 
936.48699951171875 804.86016845703125 0.43375614285469055 
936.48809814453125 804.8603515625 0.43375623226165771 
936.4891357421875 804.8602294921875 0.43375647068023682 
936.4901123046875 804.860107421875 0.43375670909881592 
936.4910888671875 804.85980224609375 0.43375700712203979 
936.49200439453125 804.859619140625 0.43375727534294128 
936.4930419921875 804.85955810546875 0.433757483959198 
936.493896484375 804.85919189453125 0.43375784158706665 
936.4949951171875 804.85906982421875 0.43375805020332336 
936.49603271484375 804.85894775390625 0.43375825881958008 
936.49688720703125 804.85870361328125 0.43375858664512634 
936.4979248046875 804.85845947265625 0.43375882506370544 
936.4990234375 804.85833740234375 0.43375900387763977 
936.4998779296875 804.8580322265625 0.43375936150550842 
936.5008544921875 804.85791015625 0.43375957012176514 
936.50140380859375 804.857177734375 0.43376016616821289 
936.5059814453125 804.861083984375 0.4337579607963562 
936.50726318359375 804.86114501953125 0.43375802040100098 
936.51031494140625 804.8631591796875 0.43375691771507263 
936.51397705078125 804.86572265625 0.43375542759895325 
936.5147705078125 804.865234375 0.43375584483146667 
936.5145263671875 804.863525390625 0.43375700712203979 
936.5145263671875 804.86224365234375 0.43375790119171143 
936.51531982421875 804.86187744140625 0.43375828862190247 
936.51318359375 804.8583984375 0.43376061320304871 
936.51739501953125 804.86138916015625 0.43375879526138306 
936.52618408203125 804.868896484375 0.43375405669212341 
936.527099609375 804.868408203125 0.43375444412231445 
936.52728271484375 804.86737060546875 0.43375524878501892 
936.528076171875 804.8668212890625 0.43375566601753235 
936.5159912109375 804.85400390625 0.43376415967941284 
936.521240234375 804.85784912109375 0.43376177549362183 
936.51824951171875 804.85394287109375 0.43376451730728149 
936.5238037109375 804.85797119140625 0.43376195430755615 
936.5296630859375 804.8621826171875 0.43375921249389648 
936.53131103515625 804.86248779296875 0.43375912308692932 
936.5343017578125 804.86407470703125 0.43375813961029053 
936.5340576171875 804.8626708984375 0.43375915288925171 
936.53387451171875 804.861328125 0.43376016616821289 
936.53460693359375 804.86083984375 0.43376058340072632 
936.53448486328125 804.85955810546875 0.43376156687736511 
936.35064697265625 804.87799072265625 0.43373909592628479 
936.3507080078125 804.8775634765625 0.43373969197273254 
936.35107421875 804.87725830078125 0.43374022841453552 
936.35125732421875 804.876953125 0.43374079465866089 
936.3515625 804.87664794921875 0.43374130129814148 
936.35186767578125 804.8763427734375 0.43374180793762207 
936.3521728515625 804.87615966796875 0.43374231457710266 
936.3594970703125 804.8775634765625 0.43373996019363403 
936.35992431640625 804.8773193359375 0.43374043703079224 
936.3602294921875 804.87701416015625 0.43374091386795044 
936.35992431640625 804.87664794921875 0.43374171853065491 
936.36029052734375 804.87640380859375 0.43374216556549072 
936.3609619140625 804.87628173828125 0.43374252319335938 
936.36151123046875 804.8759765625 0.4337429404258728 
936.3616943359375 804.87579345703125 0.43374347686767578 
936.36114501953125 804.87530517578125 0.43374431133270264 
936.36187744140625 804.8751220703125 0.43374466896057129 
936.3629150390625 804.87506103515625 0.433744877576828 
936.36383056640625 804.875 0.43374508619308472 
936.36505126953125 804.875 0.43374526500701904 
936.3848876953125 804.8787841796875 0.43373793363571167 
936.3792724609375 804.87725830078125 0.43374082446098328 
936.3785400390625 804.8768310546875 0.43374174833297729 
936.38385009765625 804.8775634765625 0.43374019861221313 
936.384033203125 804.8773193359375 0.43374079465866089 
936.384765625 804.877197265625 0.43374112248420715 
936.3927001953125 804.878173828125 0.43373867869377136 
936.39385986328125 804.8780517578125 0.4337388277053833 
936.39288330078125 804.87762451171875 0.43373984098434448 
936.3951416015625 804.87774658203125 0.43373960256576538 
936.389892578125 804.87664794921875 0.4337422251701355 
936.3857421875 804.8758544921875 0.43374437093734741 
936.38653564453125 804.87579345703125 0.4337446391582489 
936.3875732421875 804.87579345703125 0.43374484777450562 
936.388427734375 804.87567138671875 0.4337451159954071 
936.38543701171875 804.875244140625 0.43374675512313843 
936.40509033203125 804.877197265625 0.43374010920524597 
936.40478515625 804.87701416015625 0.43374082446098328 
936.3907470703125 804.87554931640625 0.43374651670455933 
936.39276123046875 804.8756103515625 0.433746337890625 
936.39398193359375 804.87554931640625 0.43374645709991455 
936.399658203125 804.8759765625 0.43374496698379517 
936.40032958984375 804.8758544921875 0.43374529480934143 
936.4041748046875 804.87603759765625 0.43374451994895935 
936.40545654296875 804.87603759765625 0.43374457955360413 
936.40380859375 804.8759765625 0.43374571204185486 
936.40655517578125 804.8759765625 0.43374532461166382 
936.40716552734375 804.8759765625 0.4337456226348877 
936.406005859375 804.8759765625 0.43374651670455933 
936.40777587890625 804.8760986328125 0.43374645709991455 
936.40704345703125 804.87628173828125 0.43374717235565186 
936.4075927734375 804.87628173828125 0.43374750018119812 
936.4091796875 804.87640380859375 0.43374744057655334 
936.4073486328125 804.8768310546875 0.43374845385551453 
936.41107177734375 804.876708984375 0.43374782800674438 
936.411376953125 804.87701416015625 0.43374815583229065 
936.41357421875 804.8770751953125 0.43374791741371155 
936.412353515625 804.8775634765625 0.43374872207641602 
936.41363525390625 804.87786865234375 0.43374872207641602 
936.4151611328125 804.8780517578125 0.43374866247177124 
936.4161376953125 804.87841796875 0.43374878168106079 
936.417724609375 804.878662109375 0.43374866247177124 
936.42095947265625 804.87841796875 0.43374818563461304 
936.42236328125 804.878662109375 0.43374815583229065 
936.42181396484375 804.8795166015625 0.43374863266944885 
936.4241943359375 804.879638671875 0.43374833464622498 
936.423583984375 804.8807373046875 0.43374869227409363 
936.4295654296875 804.87921142578125 0.43374770879745483 
936.4298095703125 804.880126953125 0.43374788761138916 
936.4324951171875 804.87982177734375 0.43374761939048767 
936.433349609375 804.8804931640625 0.43374764919281006 
936.4334716796875 804.88177490234375 0.43374773859977722 
936.43719482421875 804.8807373046875 0.43374735116958618 
936.43792724609375 804.88177490234375 0.43374729156494141 
936.44012451171875 804.881591796875 0.43374714255332947 
936.45343017578125 804.8709716796875 0.43374645709991455 
936.45318603515625 804.8720703125 0.43374672532081604 
936.45599365234375 804.86993408203125 0.43374696373939514 
936.45721435546875 804.8695068359375 0.43374720215797424 
936.45849609375 804.86895751953125 0.43374750018119812 
936.4593505859375 804.86871337890625 0.433747798204422 
936.44403076171875 804.89959716796875 0.43374404311180115 
936.46142578125 804.86810302734375 0.43374836444854736 
936.46240234375 804.867919921875 0.43374860286712646 
936.46307373046875 804.8685302734375 0.43374872207641602 
936.46417236328125 804.86773681640625 0.43374913930892944 
936.45709228515625 804.90625 0.43374025821685791 
936.457763671875 804.9217529296875 0.43373584747314453 
936.46270751953125 804.91015625 0.43373826146125793 
936.46966552734375 804.83917236328125 0.43375810980796814 
936.46929931640625 804.83770751953125 0.43375924229621887 
936.46795654296875 804.80926513671875 0.4337688684463501 
936.46728515625 804.81884765625 0.43376672267913818 
936.4659423828125 804.81500244140625 0.43376889824867249 
936.47088623046875 804.852294921875 0.43375638127326965 
936.47344970703125 804.86273193359375 0.43375286459922791 
936.47882080078125 804.88201904296875 0.43374565243721008 
936.4796142578125 804.87908935546875 0.43374684453010559 
936.47747802734375 804.86700439453125 0.43375176191329956 
936.4788818359375 804.86773681640625 0.43375161290168762 
936.4747314453125 804.85302734375 0.43375802040100098 
936.47515869140625 804.8521728515625 0.43375867605209351 
936.475830078125 804.852294921875 0.43375891447067261 
936.47998046875 804.85992431640625 0.43375575542449951 
936.48114013671875 804.86004638671875 0.43375584483146667 
936.48187255859375 804.85980224609375 0.43375620245933533 
936.4830322265625 804.85992431640625 0.43375632166862488 
936.49176025390625 804.8741455078125 0.43374955654144287 
936.47540283203125 804.843017578125 0.43376508355140686 
936.487548828125 804.86236572265625 0.43375563621520996 
936.48858642578125 804.8621826171875 0.43375584483146667 
936.48944091796875 804.86187744140625 0.43375620245933533 
936.490478515625 804.86175537109375 0.43375641107559204 
936.491455078125 804.86151123046875 0.43375670909881592 
936.49237060546875 804.861328125 0.43375697731971741 
936.49334716796875 804.8609619140625 0.43375727534294128 
936.494384765625 804.86090087890625 0.433757483959198 
936.49517822265625 804.8604736328125 0.43375790119171143 
936.4962158203125 804.8603515625 0.43375810980796814 
936.497314453125 804.8603515625 0.43375825881958008 
936.49853515625 804.8603515625 0.43375837802886963 
936.49945068359375 804.860107421875 0.43375867605209351 
936.50042724609375 804.85986328125 0.43375897407531738 
936.50146484375 804.85968017578125 0.4337591826915741 
936.49932861328125 804.8558349609375 0.43376162648200989 
936.5069580078125 804.86328125 0.43375730514526367 
936.50762939453125 804.86273193359375 0.43375778198242188 
936.50848388671875 804.86224365234375 0.43375816941261292 
936.50982666015625 804.8624267578125 0.4337581992149353 
936.51397705078125 804.86566162109375 0.43375635147094727 
936.5142822265625 804.864501953125 0.43375712633132935 
936.51397705078125 804.8629150390625 0.43375825881958008 
936.51361083984375 804.86126708984375 0.4337594211101532 
936.5150146484375 804.861328125 0.43375945091247559 
936.51708984375 804.8623046875 0.43375897407531738 
936.51837158203125 804.86236572265625 0.43375906348228455 
936.52001953125 804.86273193359375 0.433758944272995 
936.52716064453125 804.8685302734375 0.4337553083896637 
936.52740478515625 804.867431640625 0.43375608325004578 
936.5220947265625 804.8609619140625 0.4337603747844696 
936.52252197265625 804.86029052734375 0.43376091122627258 
936.5211181640625 804.857666015625 0.43376275897026062 
936.53009033203125 804.864990234375 0.43375802040100098 
936.5225830078125 804.8568115234375 0.43376359343528748 
936.52227783203125 804.85540771484375 0.43376463651657104 
936.52435302734375 804.85614013671875 0.43376424908638 
936.53289794921875 804.8629150390625 0.43375983834266663 
936.53369140625 804.86236572265625 0.43376028537750244 
936.53460693359375 804.86212158203125 0.43376058340072632 
936.53448486328125 804.86077880859375 0.43376156687736511 
936.35015869140625 804.879150390625 0.43373924493789673 
936.3504638671875 804.87884521484375 0.43373981118202209 
936.3507080078125 804.878662109375 0.43374025821685791 
936.35784912109375 804.8800048828125 0.43373796343803406 
936.35845947265625 804.87982177734375 0.43373841047286987 
936.3587646484375 804.8795166015625 0.43373891711235046 
936.35809326171875 804.87896728515625 0.43373984098434448 
936.3583984375 804.8787841796875 0.43374031782150269 
936.35919189453125 804.87860107421875 0.43374061584472656 
936.35986328125 804.87841796875 0.4337410032749176 
936.36016845703125 804.87811279296875 0.43374148011207581 
936.3604736328125 804.8778076171875 0.43374201655387878 
936.3599853515625 804.87738037109375 0.43374285101890564 
936.3602294921875 804.87713623046875 0.43374335765838623 
936.35992431640625 804.87689208984375 0.43374407291412354 
936.3599853515625 804.87646484375 0.43374469876289368 
936.36260986328125 804.87689208984375 0.43374425172805786 
936.36273193359375 804.8765869140625 0.43374478816986084 
936.3814697265625 804.8800048828125 0.43373799324035645 
936.382080078125 804.87982177734375 0.43373841047286987 
936.38262939453125 804.8795166015625 0.4337388277053833 
936.37677001953125 804.878173828125 0.43374171853065491 
936.38134765625 804.878662109375 0.43374055624008179 
936.37933349609375 804.8780517578125 0.4337419867515564 
936.380126953125 804.87799072265625 0.43374228477478027 
936.3856201171875 804.87860107421875 0.43374079465866089 
936.38739013671875 804.87860107421875 0.43374070525169373 
936.38690185546875 804.87835693359375 0.43374145030975342 
936.3883056640625 804.87823486328125 0.43374153971672058 
936.3876953125 804.8779296875 0.43374237418174744 
936.38153076171875 804.876953125 0.43374526500701904 
936.3868408203125 804.87744140625 0.43374389410018921 
936.38397216796875 804.87701416015625 0.43374550342559814 
936.384765625 804.87689208984375 0.43374580144882202 
936.38555908203125 804.8768310546875 0.43374606966972351 
936.40350341796875 804.87847900390625 0.43374007940292358 
936.40386962890625 804.87841796875 0.4337405264377594 
936.3975830078125 804.87762451171875 0.43374341726303101 
936.3907470703125 804.87701416015625 0.43374639749526978 
936.39190673828125 804.87701416015625 0.43374654650688171 
936.40283203125 804.877685546875 0.43374323844909668 
936.40350341796875 804.8775634765625 0.43374353647232056 
936.40472412109375 804.8775634765625 0.43374365568161011 
936.4029541015625 804.87738037109375 0.43374484777450562 
936.40570068359375 804.87744140625 0.43374443054199219 
936.40618896484375 804.87744140625 0.43374478816986084 
936.40753173828125 804.87738037109375 0.43374490737915039 
936.4083251953125 804.87744140625 0.4337451159954071 
936.40863037109375 804.8775634765625 0.43374556303024292 
936.40679931640625 804.877685546875 0.43374663591384888 
936.409912109375 804.877685546875 0.43374615907669067 
936.40728759765625 804.87799072265625 0.43374741077423096 
936.41021728515625 804.87799072265625 0.43374699354171753 
936.41094970703125 804.878173828125 0.43374723196029663 
936.41009521484375 804.8785400390625 0.43374791741371155 
936.41070556640625 804.87884521484375 0.43374815583229065 
936.41094970703125 804.87921142578125 0.43374848365783691 
936.412109375 804.87945556640625 0.43374857306480408 
936.41412353515625 804.8795166015625 0.43374839425086975 
936.41455078125 804.8800048828125 0.43374860286712646 
936.41632080078125 804.88018798828125 0.4337485134601593 
936.41754150390625 804.88055419921875 0.4337485134601593 
936.42193603515625 804.87994384765625 0.43374776840209961 
936.42529296875 804.87957763671875 0.43374729156494141 
936.4241943359375 804.88067626953125 0.43374785780906677 
936.42462158203125 804.88134765625 0.43374800682067871 
936.42962646484375 804.880126953125 0.43374723196029663 
936.4285888671875 804.88153076171875 0.43374767899513245 
936.43206787109375 804.880859375 0.43374729156494141 
936.43328857421875 804.88128662109375 0.43374726176261902 
936.43182373046875 804.88336181640625 0.43374761939048767 
936.43670654296875 804.881591796875 0.4337470531463623 
936.438232421875 804.8819580078125 0.43374696373939514 
936.4390869140625 804.88275146484375 0.43374699354171753 
936.45196533203125 804.87249755859375 0.43374627828598022 
936.45233154296875 804.87298583984375 0.43374651670455933 
936.45263671875 804.87384033203125 0.43374675512313843 
936.4542236328125 804.87322998046875 0.43374690413475037 
936.4393310546875 804.8961181640625 0.43374547362327576 
936.45794677734375 804.87060546875 0.43374750018119812 
936.459228515625 804.86993408203125 0.43374782800674438 
936.4600830078125 804.86993408203125 0.43374806642532349 
936.46136474609375 804.868896484375 0.43374845385551453 
936.46240234375 804.86871337890625 0.43374872207641602 
936.4632568359375 804.86871337890625 0.43374896049499512 
936.46417236328125 804.8685302734375 0.43374925851821899 
936.457763671875 804.9085693359375 0.43373969197273254 
936.4588623046875 804.92333984375 0.43373537063598633 
936.466796875 804.8709716796875 0.43374919891357422 
936.46575927734375 804.928466796875 0.43373250961303711 
936.468994140625 804.87139892578125 0.43374937772750854 
936.4725341796875 804.92047119140625 0.433733731508255 
936.46826171875 804.83685302734375 0.43376123905181885 
936.46783447265625 804.8350830078125 0.43376246094703674 
936.469482421875 804.84600830078125 0.43375909328460693 
936.47216796875 804.8580322265625 0.43375504016876221 
936.477783203125 804.8787841796875 0.43374738097190857 
936.47955322265625 804.87982177734375 0.43374699354171753 
936.4774169921875 804.86785888671875 0.43375188112258911 
936.48236083984375 804.87957763671875 0.43374717235565186 
936.4742431640625 804.85284423828125 0.43375861644744873 
936.47491455078125 804.85284423828125 0.43375891447067261 
936.47637939453125 804.8546142578125 0.43375840783119202 
936.479736328125 804.8603515625 0.43375605344772339 
936.48065185546875 804.86041259765625 0.43375623226165771 
936.481201171875 804.8594970703125 0.43375685811042786 
936.4827880859375 804.86065673828125 0.4337565004825592 
936.48394775390625 804.86083984375 0.43375658988952637 
936.48492431640625 804.86077880859375 0.43375685811042786 
936.49346923828125 804.8736572265625 0.43375054001808167 
936.4942626953125 804.872802734375 0.43375110626220703 
936.48956298828125 804.8631591796875 0.43375614285469055 
936.490966796875 804.86370849609375 0.433756023645401 
936.49169921875 804.8631591796875 0.43375647068023682 
936.4927978515625 804.86297607421875 0.43375664949417114 
936.49383544921875 804.86285400390625 0.43375688791275024 
936.49481201171875 804.862548828125 0.43375718593597412 
936.49591064453125 804.86248779296875 0.43375739455223083 
936.49676513671875 804.86224365234375 0.43375769257545471 
936.49786376953125 804.862060546875 0.43375790119171143 
936.4989013671875 804.8619384765625 0.43375813961029053 
936.50006103515625 804.86187744140625 0.43375828862190247 
936.5008544921875 804.861572265625 0.43375864624977112 
936.49798583984375 804.8565673828125 0.43376168608665466 
936.49871826171875 804.85614013671875 0.4337620735168457 
936.5057373046875 804.86309814453125 0.43375816941261292 
936.50677490234375 804.86285400390625 0.43375840783119202 
936.5076904296875 804.862548828125 0.43375870585441589 
936.50885009765625 804.86248779296875 0.43375885486602783 
936.5098876953125 804.86236572265625 0.43375906348228455 
936.5137939453125 804.86529541015625 0.43375742435455322 
936.51422119140625 804.8643798828125 0.43375805020332336 
936.5137939453125 804.86260986328125 0.43375927209854126 
936.51568603515625 804.86328125 0.43375900387763977 
936.51690673828125 804.86328125 0.43375909328460693 
936.52105712890625 804.86627197265625 0.43375733494758606 
936.5272216796875 804.87115478515625 0.43375429511070251 
936.5216064453125 804.86419677734375 0.43375882506370544 
936.5240478515625 804.86541748046875 0.4337581992149353 
936.52508544921875 804.8651123046875 0.4337584376335144 
936.52227783203125 804.8612060546875 0.43376109004020691 
936.5283203125 804.86578369140625 0.43375822901725769 
936.5274658203125 804.86376953125 0.4337596595287323 
936.521484375 804.8568115234375 0.43376430869102478 
936.531005859375 804.86468505859375 0.43375924229621887 
936.5225830078125 804.855712890625 0.43376535177230835 
936.53326416015625 804.864501953125 0.43375959992408752 
936.5323486328125 804.86236572265625 0.43376109004020691 
936.5341796875 804.86285400390625 0.43376085162162781 
936.5345458984375 804.862060546875 0.43376150727272034 
936.35693359375 804.88232421875 0.43373638391494751 
936.35723876953125 804.8819580078125 0.4337368905544281 
936.3575439453125 804.881591796875 0.43373742699623108 
936.35723876953125 804.88128662109375 0.43373814225196838 
936.35723876953125 804.880859375 0.4337388277053833 
936.35833740234375 804.8807373046875 0.43373900651931763 
936.35833740234375 804.88037109375 0.43373966217041016 
936.3592529296875 804.8802490234375 0.43373993039131165 
936.359375 804.8800048828125 0.43374049663543701 
936.3592529296875 804.879638671875 0.43374118208885193 
936.35955810546875 804.87933349609375 0.43374171853065491 
936.358154296875 804.87884521484375 0.43374285101890564 
936.35894775390625 804.87860107421875 0.4337431788444519 
936.35882568359375 804.87823486328125 0.43374386429786682 
936.35888671875 804.8780517578125 0.43374443054199219 
936.37677001953125 804.88134765625 0.43373796343803406 
936.37738037109375 804.88104248046875 0.4337383508682251 
936.375244140625 804.88037109375 0.43373984098434448 
936.37640380859375 804.88031005859375 0.43373998999595642 
936.37762451171875 804.88031005859375 0.43374010920524597 
936.37640380859375 804.87982177734375 0.43374118208885193 
936.376953125 804.87957763671875 0.43374156951904297 
936.37689208984375 804.87939453125 0.43374225497245789 
936.38031005859375 804.879638671875 0.43374153971672058 
936.3870849609375 804.88037109375 0.43373954296112061 
936.390869140625 804.8807373046875 0.43373867869377136 
936.3759765625 804.87841796875 0.43374490737915039 
936.37860107421875 804.8785400390625 0.43374457955360413 
936.37908935546875 804.87841796875 0.43374496698379517 
936.3814697265625 804.87860107421875 0.4337446391582489 
936.3836669921875 804.878662109375 0.4337444007396698 
936.384033203125 804.87860107421875 0.43374481797218323 
936.38519287109375 804.87860107421875 0.43374496698379517 
936.39422607421875 804.87933349609375 0.43374219536781311 
936.39471435546875 804.8792724609375 0.43374264240264893 
936.40264892578125 804.87969970703125 0.43374034762382507 
936.3907470703125 804.87860107421875 0.43374523520469666 
936.39044189453125 804.87860107421875 0.43374583125114441 
936.39111328125 804.87860107421875 0.43374612927436829 
936.40185546875 804.8790283203125 0.4337429404258728 
936.4017333984375 804.87896728515625 0.43374353647232056 
936.40228271484375 804.87896728515625 0.4337439239025116 
936.40142822265625 804.87890625 0.43374472856521606 
936.40496826171875 804.87890625 0.43374407291412354 
936.40692138671875 804.87884521484375 0.43374395370483398 
936.4072265625 804.87890625 0.43374437093734741 
936.40777587890625 804.87890625 0.43374469876289368 
936.40869140625 804.87890625 0.43374493718147278 
936.4090576171875 804.87896728515625 0.43374529480934143 
936.4083251953125 804.879150390625 0.43374603986740112 
936.41168212890625 804.8790283203125 0.43374547362327576 
936.4095458984375 804.87945556640625 0.43374663591384888 
936.41107177734375 804.8795166015625 0.43374660611152649 
936.4122314453125 804.879638671875 0.43374669551849365 
936.40972900390625 804.88031005859375 0.43374785780906677 
936.41058349609375 804.88055419921875 0.4337480366230011 
936.4117431640625 804.880859375 0.43374809622764587 
936.413818359375 804.8809814453125 0.43374788761138916 
936.4141845703125 804.88134765625 0.43374818563461304 
936.41595458984375 804.88153076171875 0.43374806642532349 
936.42071533203125 804.8807373046875 0.43374720215797424 
936.42095947265625 804.88140869140625 0.43374747037887573 
936.422607421875 804.881591796875 0.43374741077423096 
936.42083740234375 804.88299560546875 0.43374809622764587 
936.4222412109375 804.88336181640625 0.43374800682067871 
936.42694091796875 804.88232421875 0.43374732136726379 
936.4271240234375 804.8831787109375 0.43374750018119812 
936.43121337890625 804.882080078125 0.43374702334403992 
936.4298095703125 804.884033203125 0.43374741077423096 
936.43133544921875 804.8843994140625 0.43374729156494141 
936.4356689453125 804.88275146484375 0.43374687433242798 
936.43756103515625 804.88275146484375 0.43374678492546082 
936.43896484375 804.8831787109375 0.43374672532081604 
936.43341064453125 804.89007568359375 0.43374702334403992 
936.45159912109375 804.8740234375 0.433746337890625 
936.4527587890625 804.87371826171875 0.4337465763092041 
936.45306396484375 804.87451171875 0.43374672532081604 
936.43939208984375 804.89501953125 0.43374559283256531 
936.45477294921875 804.8751220703125 0.43374699354171753 
936.45599365234375 804.87481689453125 0.43374723196029663 
936.4588623046875 804.87152099609375 0.433747798204422 
936.46014404296875 804.87054443359375 0.43374818563461304 
936.4486083984375 804.90380859375 0.43374249339103699 
936.450927734375 804.90545654296875 0.43374171853065491 
936.462890625 804.870849609375 0.43374881148338318 
936.46380615234375 804.870849609375 0.43374902009963989 
936.45843505859375 804.91070556640625 0.43373918533325195 
936.45977783203125 804.92510986328125 0.43373483419418335 
936.46405029296875 804.9136962890625 0.43373745679855347 
936.4678955078125 804.86993408203125 0.43375000357627869 
936.46832275390625 804.83685302734375 0.43376052379608154 
936.46630859375 804.807861328125 0.43377062678337097 
936.4647216796875 804.8057861328125 0.43377226591110229 
936.46331787109375 804.80474853515625 0.43377360701560974 
936.47418212890625 804.8756103515625 0.43374887108802795 
936.472900390625 804.86322021484375 0.43375357985496521 
936.47857666015625 804.88336181640625 0.43374606966972351 
936.4761962890625 804.8690185546875 0.43375176191329956 
936.47491455078125 804.86077880859375 0.43375524878501892 
936.47430419921875 804.85650634765625 0.43375727534294128 
936.47479248046875 804.85577392578125 0.43375787138938904 
936.47784423828125 804.8616943359375 0.43375557661056519 
936.4749755859375 804.85235595703125 0.43375992774963379 
936.47900390625 804.85992431640625 0.43375679850578308 
936.47930908203125 804.8585205078125 0.43375766277313232 
936.47698974609375 804.8519287109375 0.43376097083091736 
936.482666015625 804.86151123046875 0.43375664949417114 
936.4859619140625 804.86590576171875 0.43375471234321594 
936.48431396484375 804.86077880859375 0.43375739455223083 
936.4854736328125 804.86102294921875 0.43375745415687561 
936.48907470703125 804.8653564453125 0.43375545740127563 
936.4901123046875 804.865234375 0.43375569581985474 
936.49114990234375 804.8651123046875 0.43375590443611145 
936.49212646484375 804.86480712890625 0.43375620245933533 
936.49322509765625 804.86468505859375 0.43375641107559204 
936.494140625 804.86444091796875 0.43375670909881592 
936.49517822265625 804.86431884765625 0.43375694751739502 
936.4962158203125 804.8641357421875 0.43375712633132935 
936.4971923828125 804.8638916015625 0.43375745415687561 
936.49835205078125 804.86383056640625 0.43375757336616516 
936.49945068359375 804.86370849609375 0.43375778198242188 
936.50054931640625 804.8636474609375 0.4337579607963562 
936.5015869140625 804.863525390625 0.43375813961029053 
936.50274658203125 804.86346435546875 0.43375831842422485 
936.50421142578125 804.86395263671875 0.4337581992149353 
936.5054931640625 804.86395263671875 0.43375828862190247 
936.5079345703125 804.8653564453125 0.43375757336616516 
936.50787353515625 804.86395263671875 0.43375855684280396 
936.509765625 804.86468505859375 0.43375825881958008 
936.50970458984375 804.86328125 0.43375921249389648 
936.50982666015625 804.862060546875 0.4337601363658905 
936.51220703125 804.86334228515625 0.4337594211101532 
936.514404296875 804.86444091796875 0.43375888466835022 
936.515380859375 804.8641357421875 0.4337591826915741 
936.52301025390625 804.870849609375 0.43375506997108459 
936.52032470703125 804.86663818359375 0.43375784158706665 
936.521240234375 804.8663330078125 0.43375813961029053 
936.5213623046875 804.86529541015625 0.43375891447067261 
936.5216064453125 804.8641357421875 0.43375977873802185 
936.5205078125 804.86187744140625 0.43376132845878601 
936.52496337890625 804.864990234375 0.43375939130783081 
936.5234375 804.86224365234375 0.43376129865646362 
936.52178955078125 804.8594970703125 0.43376320600509644 
936.52801513671875 804.86431884765625 0.43376019597053528 
936.531005859375 804.86590576171875 0.43375921249389648 
936.52178955078125 804.85589599609375 0.43376591801643372 
936.5303955078125 804.8629150390625 0.43376141786575317 
936.532958984375 804.86419677734375 0.43376067280769348 
936.5318603515625 804.86187744140625 0.43376228213310242 
936.5340576171875 804.86285400390625 0.43376180529594421 
936.35614013671875 804.88336181640625 0.43373668193817139 
936.35662841796875 804.88311767578125 0.4337371289730072 
936.35693359375 804.88275146484375 0.43373766541481018 
936.35723876953125 804.88250732421875 0.43373817205429077 
936.35797119140625 804.8824462890625 0.43373847007751465 
936.357421875 804.8819580078125 0.43373933434486389 
936.358154296875 804.8817138671875 0.43373966217041016 
936.35833740234375 804.8814697265625 0.43374019861221313 
936.35699462890625 804.88079833984375 0.43374139070510864 
936.35760498046875 804.8807373046875 0.43374174833297729 
936.35748291015625 804.88037109375 0.43374243378639221 
936.35760498046875 804.880126953125 0.43374300003051758 
936.35797119140625 804.87994384765625 0.43374347686767578 
936.358154296875 804.879638671875 0.43374401330947876 
936.3765869140625 804.88287353515625 0.4337373673915863 
936.376953125 804.882568359375 0.43373784422874451 
936.373779296875 804.88177490234375 0.43373972177505493 
936.37493896484375 804.8817138671875 0.43373990058898926 
936.37628173828125 804.881591796875 0.43373996019363403 
936.37579345703125 804.8812255859375 0.43374079465866089 
936.3800048828125 804.8817138671875 0.43373975157737732 
936.37548828125 804.8807373046875 0.43374210596084595 
936.37603759765625 804.880615234375 0.43374249339103699 
936.37646484375 804.8804931640625 0.43374291062355042 
936.37548828125 804.88018798828125 0.43374386429786682 
936.38916015625 804.88177490234375 0.4337393045425415 
936.38665771484375 804.8812255859375 0.43374085426330566 
936.384521484375 804.8807373046875 0.43374228477478027 
936.38531494140625 804.88067626953125 0.43374255299568176 
936.3828125 804.88018798828125 0.43374404311180115 
936.384521484375 804.8802490234375 0.43374398350715637 
936.38629150390625 804.88037109375 0.43374386429786682 
936.39373779296875 804.880859375 0.43374177813529968 
936.3939208984375 804.880615234375 0.43374231457710266 
936.38775634765625 804.880126953125 0.43374505639076233 
936.38861083984375 804.88018798828125 0.43374526500701904 
936.38916015625 804.88006591796875 0.4337456226348877 
936.40118408203125 804.880615234375 0.4337419867515564 
936.402587890625 804.88055419921875 0.43374207615852356 
936.4014892578125 804.8804931640625 0.43374300003051758 
936.4014892578125 804.88037109375 0.43374356627464294 
936.4017333984375 804.88037109375 0.43374398350715637 
936.4041748046875 804.88037109375 0.43374374508857727 
936.4063720703125 804.8802490234375 0.43374350666999817 
936.4068603515625 804.88018798828125 0.4337439239025116 
936.40478515625 804.88043212890625 0.43374505639076233 
936.407958984375 804.88037109375 0.43374454975128174 
936.4075927734375 804.8804931640625 0.43374517560005188 
936.40814208984375 804.88055419921875 0.43374550342559814 
936.40869140625 804.8807373046875 0.43374580144882202 
936.40948486328125 804.88079833984375 0.43374603986740112 
936.41094970703125 804.88079833984375 0.43374606966972351 
936.41552734375 804.8804931640625 0.43374520540237427 
936.419921875 804.87994384765625 0.43374437093734741 
936.42095947265625 804.8800048828125 0.43374454975128174 
936.422119140625 804.8798828125 0.43374472856521606 
936.42156982421875 804.88037109375 0.43374529480934143 
936.413818359375 804.8826904296875 0.43374770879745483 
936.4140625 804.8831787109375 0.43374800682067871 
936.41534423828125 804.88360595703125 0.43374800682067871 
936.4239501953125 804.88140869140625 0.43374627828598022 
936.4249267578125 804.88177490234375 0.43374639749526978 
936.42388916015625 804.8828125 0.43374696373939514 
936.421142578125 804.88470458984375 0.43374782800674438 
936.42913818359375 804.882080078125 0.43374648690223694 
936.4302978515625 804.88232421875 0.43374651670455933 
936.43121337890625 804.88287353515625 0.4337465763092041 
936.42926025390625 804.8851318359375 0.43374711275100708 
936.433349609375 804.8836669921875 0.43374666571617126 
936.43505859375 804.88372802734375 0.43374660611152649 
936.43365478515625 804.88616943359375 0.43374687433242798 
936.4375 804.884765625 0.43374654650688171 
936.4393310546875 804.8846435546875 0.43374648690223694 
936.45013427734375 804.8756103515625 0.43374615907669067 
936.451416015625 804.875244140625 0.43374636769294739 
936.4522705078125 804.87530517578125 0.4337465763092041 
936.4384765625 804.8955078125 0.43374556303024292 
936.453857421875 804.8759765625 0.43374690413475037 
936.45489501953125 804.87615966796875 0.43374702334403992 
936.4564208984375 804.87530517578125 0.43374732136726379 
936.44537353515625 804.90185546875 0.43374344706535339 
936.447265625 804.90380859375 0.43374276161193848 
936.44927978515625 804.9058837890625 0.4337419867515564 
936.46185302734375 804.8717041015625 0.43374869227409363 
936.46270751953125 804.8719482421875 0.43374887108802795 
936.456787109375 804.909423828125 0.43373993039131165 
936.4644775390625 804.8736572265625 0.43374881148338318 
936.465576171875 804.87310791015625 0.43374910950660706 
936.466796875 804.87213134765625 0.43374955654144287 
936.4678955078125 804.87237548828125 0.43374964594841003 
936.4688720703125 804.87066650390625 0.43375039100646973 
936.46990966796875 804.8712158203125 0.43375039100646973 
936.46405029296875 804.8060302734375 0.43377280235290527 
936.46270751953125 804.8052978515625 0.43377399444580078 
936.4703369140625 804.85516357421875 0.43375673890113831 
936.47125244140625 804.85675048828125 0.43375647068023682 
936.4718017578125 804.8560791015625 0.43375706672668457 
936.47210693359375 804.85498046875 0.43375781178474426 
936.4769287109375 804.86883544921875 0.43375247716903687 
936.47747802734375 804.86724853515625 0.43375331163406372 
936.47637939453125 804.861328125 0.43375599384307861 
936.4788818359375 804.865478515625 0.43375444412231445 
936.47491455078125 804.85321044921875 0.43376007676124573 
936.4801025390625 804.8636474609375 0.43375566601753235 
936.47601318359375 804.8524169921875 0.43376097083091736 
936.47674560546875 804.852294921875 0.43376132845878601 
936.48248291015625 804.86224365234375 0.43375685811042786 
936.4862060546875 804.86749267578125 0.433754563331604 
936.4871826171875 804.8673095703125 0.43375480175018311 
936.48828125 804.8671875 0.43375501036643982 
936.4892578125 804.86688232421875 0.43375527858734131 
936.4903564453125 804.86676025390625 0.43375551700592041 
936.49127197265625 804.86651611328125 0.43375572562217712 
936.49237060546875 804.866455078125 0.43375593423843384 
936.49346923828125 804.8663330078125 0.43375614285469055 
936.49462890625 804.86627197265625 0.43375632166862488 
936.49554443359375 804.86602783203125 0.43375661969184875 
936.49658203125 804.8658447265625 0.43375685811042786 
936.49774169921875 804.86572265625 0.43375700712203979 
936.49871826171875 804.86553955078125 0.43375727534294128 
936.499755859375 804.86541748046875 0.43375751376152039 
936.5008544921875 804.86529541015625 0.43375769257545471 
936.50189208984375 804.86505126953125 0.43375799059867859 
936.5028076171875 804.86480712890625 0.43375825881958008 
936.50408935546875 804.8648681640625 0.43375834822654724 
936.50531005859375 804.86492919921875 0.4337584376335144 
936.50653076171875 804.86492919921875 0.43375852704048157 
936.50726318359375 804.86444091796875 0.43375897407531738 
936.5081787109375 804.86407470703125 0.43375933170318604 
936.50958251953125 804.86431884765625 0.43375930190086365 
936.51068115234375 804.8641357421875 0.43375954031944275 
936.5118408203125 804.8641357421875 0.43375962972640991 
936.51312255859375 804.86431884765625 0.43375971913337708 
936.51519775390625 804.86505126953125 0.43375933170318604 
936.5206298828125 804.86962890625 0.43375661969184875 
936.522216796875 804.86993408203125 0.43375653028488159 
