ply
format ascii 1.0
comment VTK generated PLY File
obj_info vtkPolyData points and polygons: vtk4.0
element vertex 761
property float x
property float y
property float z
element face 0
property list uchar int vertex_indices
end_header
-0.1768229752779007 -0.19005683064460754 0.37268492579460144 
-0.17682330310344696 -0.190057173371315 0.3726857602596283 
-0.17682355642318726 -0.1900574117898941 0.37268644571304321 
-0.17682391405105591 -0.19005775451660156 0.37268728017807007 
-0.17682415246963501 -0.19005799293518066 0.37268790602684021 
-0.17682430148124695 -0.19005812704563141 0.37268835306167603 
-0.17682424187660217 -0.19005805253982544 0.37268835306167603 
-0.17672231793403625 -0.18995311856269836 0.37247550487518311 
-0.17673242092132568 -0.18996380269527435 0.37249752879142761 
-0.17674180865287781 -0.18997368216514587 0.37251788377761841 
-0.1767391711473465 -0.18997125327587128 0.37251317501068115 
-0.176712766289711 -0.18994468450546265 0.37245967984199524 
-0.17672832310199738 -0.1899607926607132 0.37249261140823364 
-0.17672458291053772 -0.18995732069015503 0.37248590588569641 
-0.17672275006771088 -0.18995578587055206 0.37248313426971436 
-0.1767255961894989 -0.18995897471904755 0.37248989939689636 
-0.17667436599731445 -0.18990799784660339 0.37238737940788269 
-0.17669492959976196 -0.18992899358272552 0.37243008613586426 
-0.17672035098075867 -0.18995471298694611 0.37248227000236511 
-0.17670580744743347 -0.18994063138961792 0.37245422601699829 
-0.17671254277229309 -0.18994766473770142 0.3724687397480011 
-0.17671257257461548 -0.18994805216789246 0.37246990203857422 
-0.17672117054462433 -0.18995685875415802 0.37248790264129639 
-0.17672741413116455 -0.18996331095695496 0.37250116467475891 
-0.17672735452651978 -0.18996357917785645 0.37250205874443054 
-0.17668817937374115 -0.18992577493190765 0.37242665886878967 
-0.17668949067592621 -0.18992748856544495 0.3724304735660553 
-0.17668808996677399 -0.18992657959461212 0.37242904305458069 
-0.17668820917606354 -0.18992714583873749 0.37243056297302246 
-0.17669105529785156 -0.18993033468723297 0.37243729829788208 
-0.17672343552112579 -0.18996177613735199 0.37250044941902161 
-0.17672361433506012 -0.18996228277683258 0.37250179052352905 
-0.17672368884086609 -0.18996268510818481 0.37250295281410217 
-0.17673473060131073 -0.18997351825237274 0.37252485752105713 
-0.1767350435256958 -0.18997412919998169 0.3725263774394989 
-0.17673709988594055 -0.18997636437416077 0.37253117561340332 
-0.17673563957214355 -0.189975306391716 0.37252938747406006 
-0.17673419415950775 -0.18997424840927124 0.37252762913703918 
-0.17673547565937042 -0.18997578322887421 0.37253099679946899 
-0.17673678696155548 -0.18997731804847717 0.3725343644618988 
-0.17673808336257935 -0.18997883796691895 0.37253767251968384 
-0.17673461139202118 -0.18997593224048615 0.37253227829933167 
-0.176730677485466 -0.18997262418270111 0.37252610921859741 
-0.17673443257808685 -0.18997640907764435 0.3725338876247406 
-0.17673641443252563 -0.18997853994369507 0.37253844738006592 
-0.17673021554946899 -0.18997322022914886 0.37252828478813171 
-0.17673644423484802 -0.18997925519943237 0.37254050374031067 
-0.17673642933368683 -0.18997953832149506 0.37254142761230469 
-0.17673693597316742 -0.18998034298419952 0.37254330515861511 
-0.17673374712467194 -0.18997779488563538 0.37253865599632263 
-0.17673452198505402 -0.18997880816459656 0.37254098057746887 
-0.17673628032207489 -0.18998073041439056 0.37254506349563599 
-0.17673635482788086 -0.18998110294342041 0.37254619598388672 
-0.17674073576927185 -0.18998534977436066 0.37255486845970154 
-0.17671738564968109 -0.18996497988700867 0.37251541018486023 
-0.17672449350357056 -0.18997164070606232 0.3725287914276123 
-0.17673847079277039 -0.18998432159423828 0.37255388498306274 
-0.17674298584461212 -0.18998861312866211 0.37256258726119995 
-0.17674283683300018 -0.18998880684375763 0.37256333231925964 
-0.17673513293266296 -0.18998239934444427 0.37255120277404785 
-0.17673484981060028 -0.18998251855373383 0.37255176901817322 
-0.17673642933368683 -0.18998421728610992 0.3725554347038269 
-0.17673741281032562 -0.18998542428016663 0.3725581169128418 
-0.17673574388027191 -0.18998432159423828 0.37255635857582092 
-0.17674043774604797 -0.18998870253562927 0.37256518006324768 
-0.17673519253730774 -0.18998454511165619 0.37255749106407166 
-0.17674291133880615 -0.18999147415161133 0.37257125973701477 
-0.17674368619918823 -0.18999245762825012 0.37257352471351624 
-0.17673562467098236 -0.1899859756231308 0.37256136536598206 
-0.17673219740390778 -0.18998342752456665 0.37255686521530151 
-0.17674426734447479 -0.18999393284320831 0.37257745862007141 
-0.17674478888511658 -0.18999472260475159 0.37257933616638184 
-0.17673997581005096 -0.18999101221561432 0.37257257103919983 
-0.17674647271633148 -0.18999679386615753 0.3725840151309967 
-0.17673799395561218 -0.18999007344245911 0.37257149815559387 
-0.17673829197883606 -0.18999068439006805 0.37257304787635803 
-0.17673859000205994 -0.18999128043651581 0.3725745677947998 
-0.17673830687999725 -0.18999139964580536 0.37257516384124756 
-0.17673918604850769 -0.18999248743057251 0.37257760763168335 
-0.17673949897289276 -0.18999309837818146 0.37257912755012512 
-0.17673517763614655 -0.18998993933200836 0.37257355451583862 
-0.17674046754837036 -0.18999457359313965 0.37258270382881165 
-0.17673955857753754 -0.18999423086643219 0.37258246541023254 
-0.17674022912979126 -0.18999511003494263 0.37258449196815491 
-0.17673824727535248 -0.18999390304088593 0.37258261442184448 
-0.17674033343791962 -0.18999592959880829 0.37258681654930115 
-0.17674244940280914 -0.18999795615673065 0.3725910484790802 
-0.17674191296100616 -0.18999789655208588 0.37259131669998169 
-0.17673957347869873 -0.1899963915348053 0.3725888729095459 
-0.17674192786216736 -0.18999862670898438 0.3725934624671936 
-0.1767428070306778 -0.18999971449375153 0.37259587645530701 
-0.17674310505390167 -0.19000029563903809 0.37259742617607117 
-0.17674341797828674 -0.19000089168548584 0.37259891629219055 
-0.17674371600151062 -0.19000148773193359 0.37260043621063232 
-0.17674390971660614 -0.19000199437141418 0.37260174751281738 
-0.17674432694911957 -0.1900026798248291 0.37260344624519348 
-0.17674428224563599 -0.19000299274921417 0.37260442972183228 
-0.17674481868743896 -0.19000378251075745 0.3726063072681427 
-0.17674511671066284 -0.1900043785572052 0.37260782718658447 
-0.17674481868743896 -0.19000451266765594 0.372608482837677 
-0.17674550414085388 -0.19000537693500519 0.37261050939559937 
-0.17674508690834045 -0.19000542163848877 0.37261098623275757 
-0.17674621939659119 -0.19000667333602905 0.37261369824409485 
-0.1767471581697464 -0.19000773131847382 0.37261605262756348 
-0.17674720287322998 -0.19000816345214844 0.37261724472045898 
-0.17674800753593445 -0.19000911712646484 0.37261942028999329 
-0.1767437607049942 -0.1900063157081604 0.37261465191841125 
-0.17674443125724792 -0.19000717997550964 0.37261667847633362 
-0.17674645781517029 -0.19000908732414246 0.37262058258056641 
-0.17674565315246582 -0.19000883400440216 0.37262055277824402 
-0.1767503023147583 -0.19001263380050659 0.37262797355651855 
-0.17674762010574341 -0.19001103937625885 0.3726254403591156 
-0.17674519121646881 -0.19000963866710663 0.37262332439422607 
-0.17674338817596436 -0.19000871479511261 0.37262201309204102 
-0.17674793303012848 -0.1900123655796051 0.37262910604476929 
-0.17675048112869263 -0.19001461565494537 0.37263363599777222 
-0.17675505578517914 -0.19001825153827667 0.37264066934585571 
-0.17674645781517029 -0.19001246988773346 0.37263056635856628 
-0.17674565315246582 -0.19001224637031555 0.37263062596321106 
-0.17674608528614044 -0.19001293182373047 0.37263229489326477 
-0.17674751579761505 -0.19001433253288269 0.37263524532318115 
-0.17674744129180908 -0.19001469016075134 0.3726363480091095 
-0.17674697935581207 -0.19001473486423492 0.37263685464859009 
-0.17674766480922699 -0.19001559913158417 0.37263882160186768 
-0.17674797773361206 -0.19001619517803192 0.37264034152030945 
-0.17675472795963287 -0.1900213211774826 0.37265002727508545 
-0.17675505578517914 -0.19002188742160797 0.37265148758888245 
-0.17675790190696716 -0.1900242418050766 0.37265613675117493 
-0.17675173282623291 -0.1900203675031662 0.37264958024024963 
-0.17675484716892242 -0.19002288579940796 0.37265452742576599 
-0.17675502598285675 -0.19002339243888855 0.37265589833259583 
-0.17675533890724182 -0.19002397358417511 0.37265735864639282 
-0.17675541341304779 -0.19002439081668854 0.37265855073928833 
-0.17675510048866272 -0.19002453982830048 0.37265923619270325 
-0.17675565183162689 -0.19002528488636017 0.37266102433204651 
-0.17675650119781494 -0.19002623856067657 0.37266314029693604 
-0.17675642669200897 -0.19002656638622284 0.37266415357589722 
-0.1767507940530777 -0.19002318382263184 0.37265864014625549 
-0.17675225436687469 -0.19002458453178406 0.37266156077384949 
-0.17675243318080902 -0.19002506136894226 0.37266284227371216 
-0.17675416171550751 -0.19002661108970642 0.37266606092453003 
-0.17675864696502686 -0.19002994894981384 0.37267237901687622 
-0.17675882577896118 -0.19003045558929443 0.37267372012138367 
-0.17675784230232239 -0.19003018736839294 0.37267369031906128 
-0.17675645649433136 -0.19002965092658997 0.37267324328422546 
-0.17675678431987762 -0.19003024697303772 0.37267470359802246 
-0.17675748467445374 -0.19003109633922577 0.37267661094665527 
-0.17675843834877014 -0.19003209471702576 0.37267884612083435 
-0.17682357132434845 -0.19005700945854187 0.37268593907356262 
-0.17682382464408875 -0.19005727767944336 0.37268659472465515 
-0.17682406306266785 -0.19005750119686127 0.37268722057342529 
-0.17682419717311859 -0.19005762040615082 0.37268763780593872 
-0.17682434618473053 -0.19005776941776276 0.37268805503845215 
-0.17682427167892456 -0.19005768001079559 0.37268805503845215 
-0.17681865394115448 -0.1900518387556076 0.37267628312110901 
-0.1768224835395813 -0.19005578756332397 0.37268447875976562 
-0.17671006917953491 -0.1899401843547821 0.37244996428489685 
-0.17672944068908691 -0.18996039032936096 0.37249132990837097 
-0.17674146592617035 -0.18997296690940857 0.3725171685218811 
-0.1767406165599823 -0.18997237086296082 0.3725162148475647 
-0.176728755235672 -0.18996056914329529 0.37249264121055603 
-0.1767285168170929 -0.18996062874794006 0.37249305844306946 
-0.17672839760780334 -0.18996080756187439 0.37249374389648438 
-0.1767299473285675 -0.18996270000934601 0.37249782681465149 
-0.17666995525360107 -0.18990276753902435 0.37237715721130371 
-0.17669165134429932 -0.18992495536804199 0.37242233753204346 
-0.17671780288219452 -0.18995147943496704 0.37247616052627563 
-0.17671884596347809 -0.18995283544063568 0.37247923016548157 
-0.17672060430049896 -0.18995493650436401 0.37248378992080688 
-0.17672187089920044 -0.18995651602745056 0.37248733639717102 
-0.17672410607337952 -0.18995903432369232 0.37249273061752319 
-0.17671759426593781 -0.18995296955108643 0.37248086929321289 
-0.17672726511955261 -0.18996280431747437 0.37250092625617981 
-0.17672854661941528 -0.18996435403823853 0.37250438332557678 
-0.17668946087360382 -0.18992665410041809 0.37242913246154785 
-0.17668914794921875 -0.18992677330970764 0.37242978811264038 
-0.17672692239284515 -0.18996375799179077 0.37250417470932007 
-0.17673124372959137 -0.18996825814247131 0.37251344323158264 
-0.17672270536422729 -0.18996036052703857 0.37249800562858582 
-0.17672321200370789 -0.18996119499206543 0.37250000238418579 
-0.17672315239906311 -0.18996147811412811 0.37250092625617981 
-0.17671960592269897 -0.18995842337608337 0.37249520421028137 
-0.1766924262046814 -0.18993298709392548 0.37244489789009094 
-0.17673711478710175 -0.18997570872306824 0.3725302517414093 
-0.17673499882221222 -0.18997400999069214 0.37252721190452576 
-0.17673638463020325 -0.18997564911842346 0.37253081798553467 
-0.17673724889755249 -0.189976766705513 0.37253335118293762 
-0.17673611640930176 -0.18997602164745331 0.3725321888923645 
-0.17673730850219727 -0.18997743725776672 0.37253531813621521 
-0.17673839628696442 -0.18997877836227417 0.37253829836845398 
-0.176732137799263 -0.18997327983379364 0.37252777814865112 
-0.1767304390668869 -0.18997204303741455 0.37252563238143921 
-0.17673172056674957 -0.18997356295585632 0.37252900004386902 
-0.17673850059509277 -0.18998011946678162 0.37254229187965393 
-0.17673826217651367 -0.18998019397258759 0.37254273891448975 
-0.17673374712467194 -0.18997639417648315 0.37253561615943909 
-0.17673505842685699 -0.18997791409492493 0.37253895401954651 
-0.17673693597316742 -0.18997995555400848 0.37254327535629272 
-0.17673474550247192 -0.18997831642627716 0.37254041433334351 
-0.17673461139202118 -0.18997851014137268 0.37254112958908081 
-0.17673638463020325 -0.18998043239116669 0.37254524230957031 
-0.17673462629318237 -0.1899791806936264 0.37254318594932556 
-0.17671814560890198 -0.18996484577655792 0.372515469789505 
-0.17671750485897064 -0.1899646669626236 0.37251549959182739 
-0.17673382163047791 -0.18997950851917267 0.37254482507705688 
-0.17674118280410767 -0.18998631834983826 0.37255853414535522 
-0.17674091458320618 -0.18998642265796661 0.37255904078483582 
-0.17674350738525391 -0.18998901546001434 0.37256443500518799 
-0.17673569917678833 -0.18998251855373383 0.37255212664604187 
-0.17673669755458832 -0.18998372554779053 0.37255480885505676 
-0.17673605680465698 -0.18998353183269501 0.37255480885505676 
-0.17673556506633759 -0.18998342752456665 0.3725549578666687 
-0.17673575878143311 -0.18998393416404724 0.37255629897117615 
-0.17674066126346588 -0.18998850882053375 0.37256553769111633 
-0.17674188315868378 -0.18998989462852478 0.37256857752799988 
-0.17674265801906586 -0.18999087810516357 0.37257084250450134 
-0.17674411833286285 -0.18999245762825012 0.37257423996925354 
-0.17673596739768982 -0.18998585641384125 0.37256184220314026 
-0.17674429714679718 -0.18999326229095459 0.372576504945755 
-0.17673610150814056 -0.18998667597770691 0.3725641667842865 
-0.17673894762992859 -0.18998941779136658 0.37256982922554016 
-0.17674615979194641 -0.18999579548835754 0.37258246541023254 
-0.17674681544303894 -0.18999670445919037 0.37258455157279968 
-0.17673799395561218 -0.18998968601226807 0.3725714385509491 
-0.17673830687999725 -0.18999028205871582 0.37257298827171326 
-0.17673848569393158 -0.18999077379703522 0.37257426977157593 
-0.17673876881599426 -0.18999138474464417 0.37257581949234009 
-0.17673943936824799 -0.1899922788143158 0.37257790565490723 
-0.17673701047897339 -0.18999063968658447 0.37257516384124756 
-0.17673978209495544 -0.18999329209327698 0.37258058786392212 
-0.17674033343791962 -0.18999408185482025 0.37258243560791016 
-0.17674301564693451 -0.18999660015106201 0.37258768081665039 
-0.17674046754837036 -0.18999488651752472 0.3725847601890564 
-0.17674195766448975 -0.18999643623828888 0.37258809804916382 
-0.17674094438552856 -0.18999600410461426 0.372587651014328 
-0.17674160003662109 -0.18999688327312469 0.37258970737457275 
-0.176738440990448 -0.18999470770359039 0.37258598208427429 
-0.17674639821052551 -0.19000141322612762 0.3725990355014801 
-0.17674250900745392 -0.18999868631362915 0.37259426712989807 
-0.1767428070306778 -0.1899992823600769 0.37259581685066223 
-0.17674300074577332 -0.1899997889995575 0.37259712815284729 
-0.17674329876899719 -0.19000038504600525 0.37259864807128906 
-0.17674361169338226 -0.190000981092453 0.37260016798973083 
-0.17674390971660614 -0.19000159204006195 0.37260165810585022 
-0.17674420773983002 -0.19000217318534851 0.37260317802429199 
-0.17674440145492554 -0.1900026798248291 0.37260448932647705 
-0.17674469947814941 -0.19000327587127686 0.37260603904724121 
-0.17674502730369568 -0.1900038868188858 0.37260755896568298 
-0.17674493789672852 -0.19000421464443207 0.37260854244232178 
-0.17674551904201508 -0.19000497460365295 0.37261039018630981 
-0.17674434185028076 -0.19000445306301117 0.37260982394218445 
-0.17675186693668365 -0.19001051783561707 0.37262150645256042 
-0.17674128711223602 -0.19000288844108582 0.37260773777961731 
-0.17674832046031952 -0.19000856578350067 0.37261867523193359 
-0.17674580216407776 -0.1900070458650589 0.37261626124382019 
-0.1767437756061554 -0.19000588357448578 0.3726145327091217 
-0.17674408853054047 -0.19000649452209473 0.37261605262756348 
-0.17674462497234344 -0.190007284283638 0.37261790037155151 
-0.17674922943115234 -0.19001108407974243 0.37262535095214844 
-0.1767432689666748 -0.19000701606273651 0.37261825799942017 
-0.17675122618675232 -0.19001327455043793 0.37263017892837524 
-0.17675180733203888 -0.19001404941082001 0.37263196706771851 
-0.17674365639686584 -0.19000846147537231 0.37262219190597534 
-0.17674955725669861 -0.19001312553882599 0.37263113260269165 
-0.17674998939037323 -0.19001381099224091 0.37263283133506775 
-0.17675019800662994 -0.1900143176317215 0.37263414263725281 
-0.17674486339092255 -0.19001086056232452 0.37262830138206482 
-0.17674817144870758 -0.19001361727714539 0.37263372540473938 
-0.17674534022808075 -0.19001197814941406 0.37263116240501404 
-0.17674688994884491 -0.19001348316669464 0.37263432145118713 
-0.17674759030342102 -0.19001433253288269 0.37263628840446472 
-0.17674700915813446 -0.1900143027305603 0.37263670563697815 
-0.17674808204174042 -0.19001542031764984 0.37263914942741394 
-0.17675493657588959 -0.19002066552639008 0.37264901399612427 
-0.17675513029098511 -0.19002117216587067 0.37265035510063171 
-0.17675328254699707 -0.19002024829387665 0.37264919281005859 
-0.17675410211086273 -0.19002118706703186 0.37265130877494812 
-0.17675212025642395 -0.19002020359039307 0.37264993786811829 
-0.17675460875034332 -0.19002227485179901 0.37265408039093018 
-0.17675277590751648 -0.19002136588096619 0.37265288829803467 
-0.17675931751728058 -0.19002626836299896 0.37266206741333008 
-0.17675977945327759 -0.19002692401409149 0.37266367673873901 
-0.17675496637821198 -0.19002403318881989 0.37265896797180176 
-0.17675477266311646 -0.19002427160739899 0.372659832239151 
-0.17675547301769257 -0.19002512097358704 0.3726617693901062 
-0.1767570823431015 -0.19002656638622284 0.37266477942466736 
-0.17675070464611053 -0.19002264738082886 0.37265828251838684 
-0.17675125598907471 -0.19002345204353333 0.37266018986701965 
-0.17675335705280304 -0.19002525508403778 0.37266379594802856 
-0.17675432562828064 -0.19002628326416016 0.37266609072685242 
-0.17675398290157318 -0.19002643227577209 0.37266680598258972 
-0.17675483226776123 -0.19002735614776611 0.37266889214515686 
-0.17675577104091644 -0.19002838432788849 0.37267115712165833 
-0.1767563670873642 -0.19002914428710938 0.37267288565635681 
-0.17675694823265076 -0.19002990424633026 0.37267470359802246 
-0.17675764858722687 -0.19003075361251831 0.37267661094665527 
-0.17675846815109253 -0.19003169238567352 0.37267875671386719 
-0.176822230219841 -0.19005517661571503 0.37268286943435669 
-0.17682383954524994 -0.19005684554576874 0.37268641591072083 
-0.17682482302188873 -0.19005784392356873 0.3726886510848999 
-0.17682245373725891 -0.19005535542964935 0.37268370389938354 
-0.17681872844696045 -0.19005146622657776 0.37267595529556274 
-0.17682430148124695 -0.19005726277828217 0.37268790602684021 
-0.17681719362735748 -0.1900499016046524 0.37267306447029114 
-0.17682477831840515 -0.19005775451660156 0.37268921732902527 
-0.17674185335636139 -0.18997251987457275 0.37251642346382141 
-0.1767428070306778 -0.18997374176979065 0.37251919507980347 
-0.17674112319946289 -0.18997226655483246 0.37251651287078857 
-0.17674355208873749 -0.18997502326965332 0.37252235412597656 
-0.17674143612384796 -0.18997310101985931 0.37251880764961243 
-0.17674006521701813 -0.18997196853160858 0.37251675128936768 
-0.17674005031585693 -0.18997223675251007 0.37251758575439453 
-0.17673078179359436 -0.18996316194534302 0.37249958515167236 
-0.17669467628002167 -0.18992723524570465 0.37242737412452698 
-0.17671792209148407 -0.18995089828968048 0.37247541546821594 
-0.17671895027160645 -0.18995225429534912 0.37247851490974426 
-0.17672032117843628 -0.18995393812656403 0.37248224020004272 
-0.17672252655029297 -0.18995647132396698 0.37248766422271729 
-0.17671817541122437 -0.18995250761508942 0.37248000502586365 
-0.17672364413738251 -0.18995822966098785 0.37249183654785156 
-0.17672564089298248 -0.1899605393409729 0.37249678373336792 
-0.17672821879386902 -0.18996337056159973 0.37250280380249023 
-0.17672915756702423 -0.18996462225914001 0.37250560522079468 
-0.17673130333423615 -0.18996700644493103 0.37251073122024536 
-0.17672052979469299 -0.18995685875415802 0.37249076366424561 
-0.17672765254974365 -0.18996410071849823 0.37250560522079468 
-0.17673252522945404 -0.18996913731098175 0.37251594662666321 
-0.17672279477119446 -0.1899600625038147 0.37249818444252014 
-0.17672276496887207 -0.18996039032936096 0.37249913811683655 
-0.17672325670719147 -0.18996119499206543 0.37250110507011414 
-0.17673876881599426 -0.18997633457183838 0.37253162264823914 
-0.17673699557781219 -0.18997493386268616 0.37252914905548096 
-0.1767381876707077 -0.18997637927532196 0.37253230810165405 
-0.17673727869987488 -0.18997581303119659 0.37253156304359436 
-0.17673903703689575 -0.18997777998447418 0.37253576517105103 
-0.17673911154270172 -0.18997813761234283 0.37253683805465698 
-0.17673932015895844 -0.18997862935066223 0.37253808975219727 
-0.17673949897289276 -0.18997912108898163 0.37253937125205994 
-0.17673881351947784 -0.18997879326343536 0.37253904342651367 
-0.17673522233963013 -0.18997578322887421 0.3725334107875824 
-0.1767314225435257 -0.18997256457805634 0.37252745032310486 
-0.17673686146736145 -0.18997789919376373 0.37253829836845398 
-0.17673636972904205 -0.18997776508331299 0.37253838777542114 
-0.17673118412494659 -0.18997335433959961 0.37252998352050781 
-0.17673070728778839 -0.18997325003147125 0.37253013253211975 
-0.17673581838607788 -0.18997824192047119 0.37254032492637634 
-0.17673611640930176 -0.18997883796691895 0.37254181504249573 
-0.176735520362854 -0.18997861444950104 0.37254172563552856 
-0.17673547565937042 -0.18997891247272491 0.37254267930984497 
-0.17673726379871368 -0.18998083472251892 0.37254679203033447 
-0.17673791944980621 -0.18998174369335175 0.372548907995224 
-0.17671804130077362 -0.18996432423591614 0.37251517176628113 
-0.17671672999858856 -0.18996354937553406 0.37251400947570801 
-0.17674301564693451 -0.18998725712299347 0.37256070971488953 
-0.17674185335636139 -0.18998655676841736 0.37255966663360596 
-0.17674238979816437 -0.18998734652996063 0.37256154417991638 
-0.17674212157726288 -0.1899874359369278 0.37256208062171936 
-0.17673934996128082 -0.18998531997203827 0.37255832552909851 
-0.17673702538013458 -0.18998362123966217 0.37255537509918213 
-0.17673675715923309 -0.18998371064662933 0.37255591154098511 
-0.17673900723457336 -0.18998600542545319 0.37256070971488953 
-0.17674358189105988 -0.18999029695987701 0.37256938219070435 
-0.17674076557159424 -0.18998819589614868 0.37256565690040588 
-0.17674164474010468 -0.18998929858207703 0.37256816029548645 
-0.17673768103122711 -0.18998622894287109 0.37256255745887756 
-0.17674435675144196 -0.1899922639131546 0.37257459759712219 
-0.1767454594373703 -0.18999356031417847 0.37257739901542664 
-0.17674601078033447 -0.18999433517456055 0.37257930636405945 
-0.17674574255943298 -0.1899944394826889 0.37257984280586243 
-0.17674629390239716 -0.18999521434307098 0.37258169054985046 
-0.17674648761749268 -0.18999570608139038 0.37258297204971313 
-0.1767466813325882 -0.18999619781970978 0.37258431315422058 
-0.17673775553703308 -0.18998907506465912 0.37257096171379089 
-0.17673817276954651 -0.18998979032039642 0.37257272005081177 
-0.17673847079277039 -0.18999037146568298 0.37257421016693115 
-0.1767377108335495 -0.18999010324478149 0.37257406115531921 
-0.17674000561237335 -0.18999236822128296 0.37257876992225647 
-0.17673100531101227 -0.18998529016971588 0.37256565690040588 
-0.1767311692237854 -0.18998581171035767 0.37256705760955811 
-0.17674162983894348 -0.18999472260475159 0.37258443236351013 
-0.17674216628074646 -0.18999552726745605 0.37258628010749817 
-0.17673666775226593 -0.18999141454696655 0.37257885932922363 
-0.17674136161804199 -0.18999557197093964 0.37258711457252502 
-0.17674367129802704 -0.18999779224395752 0.37259173393249512 
-0.1767418384552002 -0.18999665975570679 0.37258997559547424 
-0.17674025893211365 -0.18999573588371277 0.37258857488632202 
-0.17674089968204498 -0.18999661505222321 0.37259066104888916 
-0.17674238979816437 -0.18999817967414856 0.37259399890899658 
-0.17674268782138824 -0.18999877572059631 0.37259551882743835 
-0.17674288153648376 -0.18999926745891571 0.37259680032730103 
-0.17674320936203003 -0.18999987840652466 0.37259837985038757 
-0.17674350738525391 -0.19000047445297241 0.37259986996650696 
-0.17674380540847778 -0.19000107049942017 0.37260138988494873 
-0.17674408853054047 -0.19000168144702911 0.3726029098033905 
-0.17674441635608673 -0.19000227749347687 0.37260442972183228 
-0.17674469947814941 -0.19000287353992462 0.37260597944259644 
-0.17674501240253448 -0.19000346958637238 0.37260746955871582 
-0.17674508690834045 -0.1900038868188858 0.37260863184928894 
-0.17674551904201508 -0.19000455737113953 0.37261027097702026 
-0.17674583196640015 -0.19000515341758728 0.37261182069778442 
-0.17675185203552246 -0.19001013040542603 0.37262147665023804 
-0.17674814164638519 -0.19000767171382904 0.37261727452278137 
-0.17674672603607178 -0.19000695645809174 0.37261635065078735 
-0.1767459511756897 -0.19000671803951263 0.37261629104614258 
-0.17675213515758514 -0.19001175463199615 0.37262603640556335 
-0.17674396932125092 -0.19000598788261414 0.3726157546043396 
-0.17674194276332855 -0.19000482559204102 0.37261402606964111 
-0.17674544453620911 -0.19000782072544098 0.37261995673179626 
-0.17674832046031952 -0.19001033902168274 0.37262505292892456 
-0.17675124108791351 -0.19001287221908569 0.37263008952140808 
-0.17675216495990753 -0.19001390039920807 0.37263238430023193 
-0.17674924433231354 -0.190012127161026 0.3726295530796051 
-0.1767495721578598 -0.19001272320747375 0.37263107299804688 
-0.17674951255321503 -0.19001302123069763 0.37263205647468567 
-0.17675018310546875 -0.19001390039920807 0.37263402342796326 
-0.17674900591373444 -0.19001340866088867 0.37263354659080505 
-0.17674867808818817 -0.19001355767250061 0.37263426184654236 
-0.17674887180328369 -0.19001404941082001 0.3726356029510498 
-0.17674866318702698 -0.1900143027305603 0.37263643741607666 
-0.17674696445465088 -0.19001345336437225 0.3726353645324707 
-0.17674741148948669 -0.19001415371894836 0.37263703346252441 
-0.17674922943115234 -0.19001580774784088 0.372640460729599 
-0.17674876749515533 -0.19001588225364685 0.37264105677604675 
-0.17675575613975525 -0.19002120196819305 0.37265110015869141 
-0.17675013840198517 -0.19001761078834534 0.37264502048492432 
-0.17675651609897614 -0.19002245366573334 0.37265419960021973 
-0.17675480246543884 -0.19002161920070648 0.37265312671661377 
-0.1767556369304657 -0.19002258777618408 0.37265527248382568 
-0.17675594985485077 -0.19002316892147064 0.37265676259994507 
-0.17675410211086273 -0.19002224504947662 0.37265557050704956 
-0.17675429582595825 -0.19002275168895721 0.37265688180923462 
-0.17675484716892242 -0.19002352654933929 0.37265869975090027 
-0.1767524927854538 -0.19002227485179901 0.37265688180923462 
-0.17675457894802094 -0.19002409279346466 0.37266060709953308 
-0.17675489187240601 -0.19002468883991241 0.37266209721565247 
-0.17675058543682098 -0.19002215564250946 0.37265801429748535 
-0.17675322294235229 -0.19002431631088257 0.37266230583190918 
-0.1767544150352478 -0.19002550840377808 0.37266486883163452 
-0.17675679922103882 -0.19002747535705566 0.3726688027381897 
-0.17675802111625671 -0.19002868235111237 0.37267139554023743 
-0.17675548791885376 -0.19002737104892731 0.372669517993927 
-0.17675566673278809 -0.1900278776884079 0.37267085909843445 
-0.1767561137676239 -0.19002853333950043 0.37267246842384338 
-0.1767570823431015 -0.1900295615196228 0.37267470359802246 
-0.17675776779651642 -0.19003042578697205 0.37267670035362244 
-0.17675834894180298 -0.19003118574619293 0.3726784884929657 
-0.17682537436485291 -0.19005802273750305 0.37268942594528198 
-0.17681916058063507 -0.19005149602890015 0.37267622351646423 
-0.17681598663330078 -0.19004814326763153 0.37266957759857178 
-0.17681631445884705 -0.19004850089550018 0.37267047166824341 
-0.17682008445262909 -0.19005246460437775 0.37267869710922241 
-0.17681959271430969 -0.19005195796489716 0.37267783284187317 
-0.17681826651096344 -0.19005057215690613 0.37267518043518066 
-0.17673562467098236 -0.18996573984622955 0.37250342965126038 
-0.1767163872718811 -0.18994630873203278 0.37246432900428772 
-0.17671540379524231 -0.18994565308094025 0.37246328592300415 
-0.1767418384552002 -0.1899728924036026 0.37251880764961243 
-0.17673039436340332 -0.18996152281761169 0.372496098279953 
-0.17673589289188385 -0.18996739387512207 0.37250828742980957 
-0.17674173414707184 -0.18997356295585632 0.37252107262611389 
-0.17671774327754974 -0.18994970619678497 0.37247315049171448 
-0.17669358849525452 -0.18992580473423004 0.37242516875267029 
-0.17671865224838257 -0.18995125591754913 0.37247693538665771 
-0.17672009766101837 -0.18995305895805359 0.37248086929321289 
-0.17672136425971985 -0.18995462357997894 0.37248438596725464 
-0.1767238974571228 -0.18995746970176697 0.37249043583869934 
-0.17672440409660339 -0.18995830416679382 0.37249240279197693 
-0.17672565579414368 -0.18995985388755798 0.3724958598613739 
-0.17672443389892578 -0.18995900452136993 0.37249445915222168 
-0.17669133841991425 -0.189926877617836 0.37243032455444336 
-0.17673118412494659 -0.18996623158454895 0.37250962853431702 
-0.17673160135746002 -0.18996694684028625 0.3725113570690155 
-0.17672224342823029 -0.18995815515518188 0.37249410152435303 
-0.17673295736312866 -0.18996886909008026 0.37251588702201843 
-0.17672204971313477 -0.18995864689350128 0.37249574065208435 
-0.17670203745365143 -0.18993973731994629 0.37245830893516541 
-0.17672261595726013 -0.18995988368988037 0.37249889969825745 
-0.17672005295753479 -0.18995778262615204 0.37249502539634705 
-0.17669062316417694 -0.18993005156517029 0.37244012951850891 
-0.17673806846141815 -0.18997560441493988 0.37253120541572571 
-0.17672443389892578 -0.1899629533290863 0.37250640988349915 
-0.17673780024051666 -0.18997594714164734 0.37253254652023315 
-0.17673701047897339 -0.18997551500797272 0.37253201007843018 
-0.17673864960670471 -0.18997734785079956 0.37253597378730774 
-0.17673707008361816 -0.18997617065906525 0.37253397703170776 
-0.17674003541469574 -0.18997925519943237 0.37254038453102112 
-0.17673946917057037 -0.18997901678085327 0.37254026532173157 
-0.17673355340957642 -0.18997384607791901 0.37253034114837646 
-0.17673464119434357 -0.18997515738010406 0.37253329157829285 
-0.17673382163047791 -0.18997474014759064 0.37253278493881226 
-0.17673300206661224 -0.18997430801391602 0.37253224849700928 
-0.17673519253730774 -0.18997664749622345 0.37253725528717041 
-0.17673012614250183 -0.18997234106063843 0.37252905964851379 
-0.17673076689243317 -0.18997325003147125 0.37253120541572571 
-0.1767326295375824 -0.18997529149055481 0.3725355863571167 
-0.17673236131668091 -0.18997538089752197 0.37253612279891968 
-0.17673557996749878 -0.18997861444950104 0.37254282832145691 
-0.17673644423484802 -0.18997973203659058 0.37254533171653748 
-0.17673076689243317 -0.18997496366500854 0.37253636121749878 
-0.17673106491565704 -0.18997558951377869 0.37253791093826294 
-0.17673678696155548 -0.18998104333877563 0.37254893779754639 
-0.17673663794994354 -0.18998122215270996 0.3725496232509613 
-0.17673909664154053 -0.18998374044895172 0.37255492806434631 
-0.17674259841442108 -0.18998715281486511 0.37256190180778503 
-0.17674244940280914 -0.18998733162879944 0.37256264686584473 
-0.17674274742603302 -0.18998792767524719 0.37256410717964172 
-0.17673712968826294 -0.1899833083152771 0.37255546450614929 
-0.17673833668231964 -0.18998470902442932 0.37255853414535522 
-0.17673714458942413 -0.1899840235710144 0.37255758047103882 
-0.1767374575138092 -0.18998461961746216 0.37255910038948059 
-0.17674489319324493 -0.18999138474464417 0.37257257103919983 
-0.17673829197883606 -0.18998602032661438 0.37256252765655518 
-0.17673766613006592 -0.18998582661151886 0.37256249785423279 
-0.17673717439174652 -0.1899857223033905 0.37256264686584473 
-0.17674566805362701 -0.18999335169792175 0.37257775664329529 
-0.17674611508846283 -0.18999405205249786 0.372579425573349 
-0.17673829197883606 -0.18998771905899048 0.37256762385368347 
-0.17673930525779724 -0.18998892605304718 0.37257027626037598 
-0.17674671113491058 -0.18999551236629486 0.3725832998752594 
-0.1767374575138092 -0.18998804688453674 0.37256932258605957 
-0.17673775553703308 -0.18998867273330688 0.37257090210914612 
-0.17673805356025696 -0.18998926877975464 0.3725723922252655 
-0.17673589289188385 -0.18998782336711884 0.37257003784179688 
-0.17673946917057037 -0.18999116122722626 0.37257677316665649 
-0.17673896253108978 -0.18999107182025909 0.37257698178291321 
-0.17673961818218231 -0.18999196588993073 0.37257909774780273 
-0.17673920094966888 -0.18999198079109192 0.37257951498031616 
-0.17674314975738525 -0.18999557197093964 0.37258675694465637 
-0.17674145102500916 -0.18999454379081726 0.37258508801460266 
-0.17674531042575836 -0.18999801576137543 0.37259209156036377 
-0.17673781514167786 -0.1899922639131546 0.37258154153823853 
-0.17673881351947784 -0.18999344110488892 0.37258419394493103 
-0.17673851549625397 -0.18999357521533966 0.37258481979370117 
-0.17674024403095245 -0.18999531865119934 0.37258845567703247 
-0.17674197256565094 -0.18999707698822021 0.37259221076965332 
-0.17674227058887482 -0.18999767303466797 0.37259373068809509 
-0.17674258351325989 -0.18999828398227692 0.37259525060653687 
-0.17674277722835541 -0.18999879062175751 0.37259659171104431 
-0.17674307525157928 -0.18999937176704407 0.37259811162948608 
-0.17674337327480316 -0.18999998271465302 0.37259960174560547 
-0.17674367129802704 -0.19000056385993958 0.37260112166404724 
-0.17674386501312256 -0.19000107049942017 0.3726024329662323 
-0.17674417793750763 -0.19000166654586792 0.37260398268699646 
-0.17674459517002106 -0.19000236690044403 0.37260568141937256 
-0.17674489319324493 -0.19000294804573059 0.37260717153549194 
-0.17674459517002106 -0.19000309705734253 0.37260782718658447 
-0.17674526572227478 -0.19000397622585297 0.37260985374450684 
-0.17674411833286285 -0.19000345468521118 0.37260928750038147 
-0.17675292491912842 -0.19001057744026184 0.37262293696403503 
-0.17674289643764496 -0.19000324606895447 0.37260973453521729 
-0.17674662172794342 -0.19000644981861115 0.37261605262756348 
-0.17674177885055542 -0.19000314176082611 0.37261036038398743 
-0.1767520010471344 -0.19001126289367676 0.37262576818466187 
-0.17674607038497925 -0.19000712037086487 0.37261855602264404 
-0.17674845457077026 -0.19000928103923798 0.37262293696403503 
-0.1767466813325882 -0.19000831246376038 0.3726215660572052 
-0.17674686014652252 -0.19000881910324097 0.37262287735939026 
-0.17674839496612549 -0.19001033902168274 0.37262609601020813 
-0.17674896121025085 -0.19001111388206482 0.37262794375419617 
-0.17674915492534637 -0.19001162052154541 0.37262928485870361 
-0.17674945294857025 -0.19001220166683197 0.372630774974823 
-0.17674975097179413 -0.19001279771327972 0.37263226509094238 
-0.17675018310546875 -0.19001348316669464 0.37263393402099609 
-0.17674951255321503 -0.19001336395740509 0.37263411283493042 
-0.17675057053565979 -0.19001448154449463 0.37263661623001099 
-0.17674477398395538 -0.190010666847229 0.37263002991676331 
-0.17675018310546875 -0.19001495838165283 0.37263831496238708 
-0.17674811184406281 -0.19001384079456329 0.37263667583465576 
-0.17674918472766876 -0.19001497328281403 0.37263914942741394 
-0.17674960196018219 -0.19001568853855133 0.37264090776443481 
-0.17675016820430756 -0.19001644849777222 0.37264266610145569 
-0.17675024271011353 -0.19001685082912445 0.3726438581943512 
-0.17675016820430756 -0.19001717865467072 0.37264487147331238 
-0.17675727605819702 -0.19002257287502289 0.37265506386756897 
-0.17675735056400299 -0.19002299010753632 0.37265622615814209 
-0.17675575613975525 -0.19002225995063782 0.37265530228614807 
-0.17675633728504181 -0.19002300500869751 0.37265715003013611 
-0.17675714194774628 -0.19002395868301392 0.37265926599502563 
-0.17675544321537018 -0.19002312421798706 0.37265816330909729 
-0.17675487697124481 -0.19002310931682587 0.37265858054161072 
-0.17675250768661499 -0.19002185761928558 0.37265673279762268 
-0.17675332725048065 -0.1900227963924408 0.37265887856483459 
-0.17675451934337616 -0.19002401828765869 0.37266150116920471 
-0.17675486207008362 -0.19002458453178406 0.37266293168067932 
-0.17675285041332245 -0.19002363085746765 0.37266167998313904 
-0.17675599455833435 -0.19002611935138702 0.37266653776168823 
-0.17675630748271942 -0.19002670049667358 0.37266802787780762 
-0.17675788700580597 -0.19002817571163177 0.37267112731933594 
-0.17675822973251343 -0.19002874195575714 0.37267255783081055 
-0.17675787210464478 -0.19002892076969147 0.37267330288887024 
-0.17675833404064178 -0.190029576420784 0.37267491221427917 
-0.1767609715461731 -0.19003170728683472 0.37267911434173584 
-0.17675895988941193 -0.1900307685136795 0.37267792224884033 
-0.17676331102848053 -0.19003400206565857 0.37268403172492981 
-0.17682613432407379 -0.1900583803653717 0.37269088625907898 
-0.17682524025440216 -0.1900574117898941 0.37268906831741333 
-0.17682379484176636 -0.19005590677261353 0.37268611788749695 
-0.17682017385959625 -0.19005212187767029 0.37267857789993286 
-0.17682135105133057 -0.19005334377288818 0.37268126010894775 
-0.17681847512722015 -0.19005034863948822 0.37267529964447021 
-0.17682318389415741 -0.19005528092384338 0.37268549203872681 
-0.17670030891895294 -0.18992877006530762 0.37242880463600159 
-0.17672218382358551 -0.18995161354541779 0.37247550487518311 
-0.17672331631183624 -0.18995307385921478 0.37247881293296814 
-0.17673324048519135 -0.18996351957321167 0.37250027060508728 
-0.17673726379871368 -0.18996788561344147 0.37250944972038269 
-0.17673173546791077 -0.18996255099773407 0.37249892950057983 
-0.17672993242740631 -0.18996100127696991 0.372496098279953 
-0.17671754956245422 -0.18994882702827454 0.37247177958488464 
-0.17669671773910522 -0.18992820382118225 0.37243044376373291 
-0.17671896517276764 -0.18995091319084167 0.37247663736343384 
-0.17671926319599152 -0.18995152413845062 0.37247821688652039 
-0.1767212450504303 -0.18995383381843567 0.37248319387435913 
-0.1767229437828064 -0.18995584547519684 0.37248760461807251 
-0.17672440409660339 -0.18995761871337891 0.3724915087223053 
-0.17669360339641571 -0.18992750346660614 0.37243121862411499 
-0.17669351398944855 -0.1899278312921524 0.37243226170539856 
-0.17672860622406006 -0.1899627298116684 0.37250271439552307 
-0.17673139274120331 -0.18996576964855194 0.37250915169715881 
-0.17672304809093475 -0.18995791673660278 0.37249371409416199 
-0.17673212289810181 -0.189967080950737 0.37251240015029907 
-0.17672394216060638 -0.18995945155620575 0.37249743938446045 
-0.17672163248062134 -0.18995754420757294 0.37249395251274109 
-0.17672191560268402 -0.18995815515518188 0.37249553203582764 
-0.1767221987247467 -0.18995878100395203 0.37249711155891418 
-0.17671997845172882 -0.18995697796344757 0.37249383330345154 
-0.17673894762992859 -0.18997548520565033 0.37253111600875854 
-0.17673313617706299 -0.1899702250957489 0.37252092361450195 
-0.17672401666641235 -0.18996186554431915 0.3725045919418335 
-0.17673845589160919 -0.18997590243816376 0.37253287434577942 
-0.1767396479845047 -0.18997733294963837 0.3725360631942749 
-0.17673788964748383 -0.18997594714164734 0.37253361940383911 
-0.1767394095659256 -0.18997767567634583 0.37253740429878235 
-0.17674015462398529 -0.18997868895530701 0.3725396990776062 
-0.17673914134502411 -0.18997804820537567 0.37253874540328979 
-0.1767401248216629 -0.18997927010059357 0.37254148721694946 
-0.17673419415950775 -0.18997406959533691 0.37253153324127197 
-0.17673772573471069 -0.18997766077518463 0.37253895401954651 
-0.17673835158348083 -0.18997855484485626 0.37254104018211365 
-0.17673376202583313 -0.18997462093830109 0.37253361940383911 
-0.17674033343791962 -0.18998096883296967 0.37254652380943298 
-0.17673806846141815 -0.18997921049594879 0.37254336476325989 
-0.1767343282699585 -0.18997612595558167 0.37253761291503906 
-0.17673115432262421 -0.18997356295585632 0.37253293395042419 
-0.1767333596944809 -0.18997588753700256 0.37253785133361816 
-0.17673388123512268 -0.18997670710086823 0.37253981828689575 
-0.17673644423484802 -0.18997934460639954 0.37254533171653748 
-0.17673063278198242 -0.18997445702552795 0.3725360631942749 
-0.17673987150192261 -0.189983069896698 0.37255328893661499 
-0.17673575878143311 -0.18997973203659058 0.37254709005355835 
-0.17673730850219727 -0.18998143076896667 0.37255081534385681 
-0.17673760652542114 -0.18998204171657562 0.3725523054599762 
-0.17673780024051666 -0.18998253345489502 0.37255364656448364 
-0.17673684656620026 -0.18998202681541443 0.37255299091339111 
-0.17674024403095245 -0.18998533487319946 0.37255978584289551 
-0.17673642933368683 -0.18998232483863831 0.3725542426109314 
-0.17673592269420624 -0.18998220562934875 0.37255442142486572 
-0.17673633992671967 -0.18998292088508606 0.37255614995956421 
-0.17673665285110474 -0.18998353183269501 0.37255766987800598 
-0.17673729360103607 -0.18998442590236664 0.37255975604057312 
-0.17673781514167786 -0.18998521566390991 0.37256169319152832 
-0.17673754692077637 -0.18998533487319946 0.3725622296333313 
-0.17673739790916443 -0.18998552858829498 0.37256297469139099 
-0.1767374575138092 -0.18998594582080841 0.37256413698196411 
-0.17673277854919434 -0.18998229503631592 0.37255746126174927 
-0.17673853039741516 -0.18998752534389496 0.37256792187690735 
-0.1767396479845047 -0.18998882174491882 0.37257078289985657 
-0.17673888802528381 -0.18998853862285614 0.37257060408592224 
-0.17673744261264801 -0.1899876594543457 0.37256926298141479 
-0.17673775553703308 -0.18998828530311584 0.37257084250450134 
-0.17673793435096741 -0.18998876214027405 0.37257212400436401 
-0.17673835158348083 -0.18998946249485016 0.3725738525390625 
-0.17672951519489288 -0.18998247385025024 0.37256082892417908 
-0.17674048244953156 -0.18999193608760834 0.37257936596870422 
-0.17674006521701813 -0.18999195098876953 0.37257975339889526 
-0.17674227058887482 -0.18999411165714264 0.37258422374725342 
-0.17674033343791962 -0.18999284505844116 0.37258222699165344 
-0.17674039304256439 -0.18999326229095459 0.37258335947990417 
-0.1767442524433136 -0.18999676406383514 0.37259042263031006 
-0.17674502730369568 -0.18999774754047394 0.37259268760681152 
-0.17673881351947784 -0.18999303877353668 0.37258410453796387 
-0.17674563825130463 -0.18999892473220825 0.37259563803672791 
-0.17674165964126587 -0.18999607861042023 0.37259060144424438 
-0.17674185335636139 -0.18999657034873962 0.37259194254875183 
-0.17674216628074646 -0.18999718129634857 0.3725934624671936 
-0.17674246430397034 -0.18999776244163513 0.37259495258331299 
-0.17674276232719421 -0.18999837338924408 0.37259650230407715 
-0.17674726247787476 -0.19000229239463806 0.37260428071022034 
-0.17674337327480316 -0.18999956548213959 0.37259954214096069 
-0.17674356698989868 -0.19000005722045898 0.37260085344314575 
-0.17674362659454346 -0.19000047445297241 0.37260201573371887 
-0.17674440145492554 -0.19000145792961121 0.37260428071022034 
-0.17674447596073151 -0.19000186026096344 0.37260535359382629 
-0.17674431204795837 -0.19000206887722015 0.37260618805885315 
-0.17673879861831665 -0.18999817967414856 0.3725992739200592 
-0.17674516141414642 -0.19000346958637238 0.37260958552360535 
-0.1767461895942688 -0.1900046318769455 0.37261214852333069 
-0.17675329744815826 -0.19001045823097229 0.37262344360351562 
-0.17674437165260315 -0.19000394642353058 0.37261167168617249 
-0.17674577236175537 -0.19000537693500519 0.37261474132537842 
-0.17674680054187775 -0.19000653922557831 0.37261730432510376 
-0.17674270272254944 -0.19000379741191864 0.37261262536048889 
-0.17674729228019714 -0.19000764191150665 0.37262013554573059 
-0.17674848437309265 -0.19000887870788574 0.37262284755706787 
-0.17675478756427765 -0.19001400470733643 0.3726327121257782 
-0.17675203084945679 -0.19001227617263794 0.37262994050979614 
-0.1767532080411911 -0.19001349806785583 0.37263259291648865 
-0.17675536870956421 -0.19001546502113342 0.37263664603233337 
-0.17674976587295532 -0.19001166522502899 0.37263002991676331 
-0.17674945294857025 -0.19001179933547974 0.37263068556785583 
-0.17674966156482697 -0.19001229107379913 0.37263199687004089 
-0.17675007879734039 -0.19001299142837524 0.37263369560241699 
-0.17674951255321503 -0.19001294672489166 0.37263399362564087 
-0.17675033211708069 -0.19001390039920807 0.37263619899749756 
-0.17674590647220612 -0.19001103937625885 0.37263137102127075 
-0.17675057053565979 -0.19001480937004089 0.37263867259025574 
-0.17674551904201508 -0.19001153111457825 0.37263312935829163 
-0.17675143480300903 -0.19001618027687073 0.37264201045036316 
-0.1767478734254837 -0.19001398980617523 0.37263846397399902 
-0.17675019800662994 -0.1900160163640976 0.37264254689216614 
-0.17675112187862396 -0.19001705944538116 0.37264484167098999 
-0.17675156891345978 -0.19001774489879608 0.37264654040336609 
-0.17675098776817322 -0.19001771509647369 0.37264692783355713 
-0.17675180733203888 -0.1900186687707901 0.37264904379844666 
-0.17675904929637909 -0.19002416729927063 0.37265944480895996 
-0.17675888538360596 -0.19002439081668854 0.37266021966934204 
-0.17675715684890747 -0.19002355635166168 0.37265917658805847 
-0.17675785720348358 -0.19002439081668854 0.37266108393669128 
-0.17675475776195526 -0.19002260267734528 0.37265828251838684 
-0.17675291001796722 -0.19002169370651245 0.37265706062316895 
-0.17675361037254333 -0.1900225430727005 0.37265905737876892 
-0.17675444483757019 -0.19002349674701691 0.37266117334365845 
-0.17675536870956421 -0.19002451002597809 0.3726634681224823 
-0.17675541341304779 -0.19002494215965271 0.37266466021537781 
-0.17675139009952545 -0.19002255797386169 0.37266084551811218 
-0.17675222456455231 -0.1900235116481781 0.37266296148300171 
-0.17675714194774628 -0.19002722203731537 0.37267005443572998 
-0.1767573207616806 -0.19002772867679596 0.37267139554023743 
-0.17675790190696716 -0.19002847373485565 0.37267312407493591 
-0.17675861716270447 -0.1900293380022049 0.3726750910282135 
-0.17675930261611938 -0.19003018736839294 0.37267705798149109 
-0.17675988376140594 -0.19003096222877502 0.37267887592315674 
-0.1767607182264328 -0.19003187119960785 0.37268093228340149 
-0.17682687938213348 -0.19005872309207916 0.3726922869682312 
-0.17682483792304993 -0.19005656242370605 0.37268802523612976 
-0.17682641744613647 -0.19005821645259857 0.3726915717124939 
-0.17682291567325592 -0.19005453586578369 0.37268424034118652 
-0.17682085931301117 -0.19005239009857178 0.37268000841140747 
-0.17681951820850372 -0.19005103409290314 0.37267741560935974 
-0.17682027816772461 -0.19005180895328522 0.372679203748703 
-0.17672356963157654 -0.18995234370231628 0.37247750163078308 
-0.17672395706176758 -0.18995307385921478 0.37247923016548157 
-0.17672666907310486 -0.18995615839958191 0.37248581647872925 
-0.17675109207630157 -0.18998135626316071 0.37253722548484802 
-0.17674697935581207 -0.18997740745544434 0.37252947688102722 
-0.17672726511955261 -0.18995764851570129 0.37248975038528442 
-0.17672999203205109 -0.18996071815490723 0.37249627709388733 
-0.17669740319252014 -0.18992814421653748 0.37243074178695679 
-0.17671811580657959 -0.18994937837123871 0.37247398495674133 
-0.17671903967857361 -0.18995063006877899 0.37247684597969055 
-0.1767205148935318 -0.18995241820812225 0.37248077988624573 
