ply
format ascii 1.0
comment VTK generated PLY File
obj_info vtkPolyData points and polygons: vtk4.0
element vertex 64
property float x
property float y
property float z
element face 0
property list uchar int vertex_indices
end_header
700.53131103515625 830.22442626953125 0.032483667135238647 
700.504638671875 830.1563720703125 0.033261287957429886 
700.50433349609375 830.16046142578125 0.033399563282728195 
700.50238037109375 830.15167236328125 0.033397369086742401 
700.56048583984375 830.2850341796875 0.031974468380212784 
700.53411865234375 830.2210693359375 0.032676663249731064 
700.49713134765625 830.1351318359375 0.033635605126619339 
700.51129150390625 830.18109130859375 0.033233299851417542 
700.498046875 830.1361083984375 0.033578313887119293 
700.48614501953125 830.14532470703125 0.034314144402742386 
700.50103759765625 830.15093994140625 0.033531308174133301 
700.5260009765625 830.23260498046875 0.033237013965845108 
700.36956787109375 830.028076171875 0.036478202790021896 
700.468017578125 830.066650390625 0.035006493330001831 
700.47064208984375 830.114990234375 0.034444637596607208 
700.51531982421875 830.207275390625 0.03292914479970932 
700.43212890625 830.0987548828125 0.034969460219144821 
700.3914794921875 830.05426025390625 0.036000289022922516 
700.50347900390625 830.17218017578125 0.033743295818567276 
700.48193359375 830.142333984375 0.034218233078718185 
700.4345703125 830.0933837890625 0.03490564227104187 
700.442138671875 830.10955810546875 0.034721564501523972 
700.408447265625 830.0543212890625 0.035725485533475876 
700.4365234375 830.0804443359375 0.035015139728784561 
700.51458740234375 830.20635986328125 0.033114589750766754 
700.57586669921875 830.21697998046875 0.03237910196185112 
700.6058349609375 830.2708740234375 0.032104972749948502 
700.5426025390625 830.15863037109375 0.033145900815725327 
700.44134521484375 830.1192626953125 0.034445572644472122 
700.35931396484375 830.03668212890625 0.036213885992765427 
700.35723876953125 830.019287109375 0.03644215315580368 
583.13385009765625 897.537841796875 0.31704258918762207 
585.12664794921875 899.19012451171875 0.28574496507644653 
584.880859375 898.83660888671875 0.28908607363700867 
585.88916015625 899.81927490234375 0.27029955387115479 
584.52978515625 898.5391845703125 0.29493987560272217 
584.074462890625 897.8067626953125 0.30536568164825439 
586.511474609375 900.366943359375 0.26149365305900574 
584.17889404296875 897.6812744140625 0.30768880248069763 
761.7796630859375 778.4918212890625 0.024657197296619415 
761.7572021484375 778.44842529296875 0.024675440043210983 
761.6585693359375 778.404541015625 0.025791022926568985 
761.835693359375 778.4847412109375 0.023943470790982246 
761.87841796875 778.4697265625 0.023795422166585922 
761.72283935546875 778.4259033203125 0.025254189968109131 
761.66375732421875 778.41583251953125 0.025483958423137665 
761.70318603515625 778.395263671875 0.025425147265195847 
761.9119873046875 778.50628662109375 0.023396480828523636 
761.79608154296875 778.473876953125 0.024755425751209259 
715.3082275390625 708.77105712890625 0.044260337948799133 
715.251953125 708.677978515625 0.045610040426254272 
715.290771484375 708.7904052734375 0.044170886278152466 
715.35345458984375 708.7763671875 0.043809324502944946 
715.31964111328125 708.765625 0.043626971542835236 
715.25408935546875 708.70147705078125 0.045342005789279938 
715.412353515625 708.8017578125 0.042532209306955338 
715.32257080078125 708.7581787109375 0.043658845126628876 
715.1976318359375 708.66387939453125 0.045958593487739563 
715.3231201171875 708.75616455078125 0.043670836836099625 
715.31488037109375 708.74462890625 0.044041994959115982 
715.28399658203125 708.70159912109375 0.045208211988210678 
715.36334228515625 708.80523681640625 0.042939599603414536 
715.443603515625 708.86505126953125 0.042260166257619858 
715.31365966796875 708.7508544921875 0.044558331370353699 
