ply
format ascii 1.0
comment VTK generated PLY File
obj_info vtkPolyData points and polygons: vtk4.0
element vertex 74
property float x
property float y
property float z
element face 0
property list uchar int vertex_indices
end_header
228.94033813476562 382.0028076171875 0.84876757860183716 
228.85624694824219 382.06338500976562 0.84879601001739502 
229.11912536621094 381.9798583984375 0.84872275590896606 
228.99617004394531 381.94332885742188 0.84874910116195679 
228.87213134765625 382.03326416015625 0.84878617525100708 
229.03240966796875 382.00408935546875 0.84874826669692993 
228.91036987304688 382.06826782226562 0.848785400390625 
228.90809631347656 382.052490234375 0.84878289699554443 
228.91317749023438 382.04913330078125 0.84878146648406982 
229.04647827148438 381.96917724609375 0.84874111413955688 
228.91090393066406 382.0289306640625 0.84877896308898926 
228.85606384277344 382.06320190429688 0.84879601001739502 
228.99644470214844 381.94314575195312 0.84874904155731201 
229.11866760253906 381.97976684570312 0.84872275590896606 
228.91336059570312 382.04904174804688 0.8487815260887146 
229.04620361328125 381.96908569335938 0.84874111413955688 
228.95268249511719 382.09085083007812 0.8487820029258728 
228.99635314941406 381.94134521484375 0.84874886274337769 
228.85551452636719 382.06329345703125 0.84879606962203979 
229.11848449707031 381.97967529296875 0.84872281551361084 
229.00025939941406 381.935791015625 0.84874701499938965 
228.9542236328125 382.0948486328125 0.84878236055374146 
228.99635314941406 381.94296264648438 0.84874898195266724 
228.94259643554688 381.98712158203125 0.84876477718353271 
228.85551452636719 382.06301879882812 0.84879606962203979 
229.00680541992188 381.928466796875 0.84874480962753296 
229.00425720214844 381.93780517578125 0.84874659776687622 
229.11776733398438 381.97930908203125 0.84872287511825562 
228.88003540039062 382.0147705078125 0.84878188371658325 
229.007080078125 381.92791748046875 0.84874475002288818 
228.99690246582031 381.94268798828125 0.84874886274337769 
229.00416564941406 381.93789672851562 0.848746657371521 
228.94178771972656 381.98684692382812 0.84876489639282227 
229.00326538085938 381.93878173828125 0.84874683618545532 
229.00062561035156 381.93597412109375 0.84874677658081055 
229.0255126953125 381.9512939453125 0.84873676300048828 
229.001708984375 381.93624877929688 0.84874683618545532 
229.00262451171875 381.93896484375 0.84874701499938965 
229.04983520507812 382.07705688476562 0.84876531362533569 
-7571.5380859375 -6635.3994140625 5.6180720329284668 
-7575.11083984375 -6637.49609375 5.6201372146606445 
-7581.82958984375 -6644.39501953125 5.6242499351501465 
-7576.7509765625 -6640.70068359375 5.6213159561157227 
-7571.03564453125 -6633.60791015625 5.6177668571472168 
-7576.7373046875 -6640.63232421875 5.6213088035583496 
-7573.3427734375 -6635.70849609375 5.6190838813781738 
-7588.87744140625 -6650.69677734375 5.6292533874511719 
-7576.80859375 -6640.74169921875 5.6213464736938477 
760.00250244140625 178.33087158203125 0.4039669930934906 
760.07916259765625 178.48655700683594 0.40392985939979553 
759.95916748046875 178.32525634765625 0.40406852960586548 
759.97119140625 178.35499572753906 0.40403011441230774 
760.13873291015625 178.68647766113281 0.40387082099914551 
759.96954345703125 178.29795837402344 0.40398484468460083 
759.9586181640625 178.25090026855469 0.40406569838523865 
760.06915283203125 178.49180603027344 0.40394335985183716 
760.15106201171875 178.69827270507812 0.40385746955871582 
760.045654296875 178.25996398925781 0.40394067764282227 
760.17755126953125 178.76138305664062 0.40383389592170715 
-2941.91552734375 -2585.52490234375 2.8208601474761963 
-2941.95556640625 -2586.35546875 2.8210127353668213 
-2941.982421875 -2586.42138671875 2.8210427761077881 
-2941.561767578125 -2585.9853515625 2.820671558380127 
-2942.04931640625 -2585.989501953125 2.8210453987121582 
-2941.8388671875 -2586.038330078125 2.8208169937133789 
-2941.956298828125 -2586.35693359375 2.8210132122039795 
-2942.03662109375 -2585.98486328125 2.821033239364624 
-2942.8564453125 -2587.08447265625 2.8218486309051514 
-2943.155029296875 -2587.41552734375 2.8221421241760254 
-2941.878662109375 -2586.4130859375 2.820950984954834 
-2941.94677734375 -2585.57275390625 2.8208930492401123 
-2941.81103515625 -2586.246337890625 2.8207898139953613 
-2941.3857421875 -2585.818603515625 2.8205029964447021 
-2941.8349609375 -2585.345703125 2.8207821846008301 
